# .PCD v0.7 - Point Cloud Data file format
VERSION 0.7
FIELDS x y z rgb
SIZE 4 4 4 4
TYPE F F F F
COUNT 1 1 1 1
WIDTH 1023
HEIGHT 1
VIEWPOINT 0 0 0 1 0 0 0
POINTS 1023
DATA ascii
-0.78369379 -0.34550431 1.688 3.5733111e-43
-0.77233028 -0.34492913 1.6810001 3.5733111e-43
-0.76410532 -0.34472668 1.6800002 3.5733111e-43
-0.75478786 -0.34472668 1.6800002 3.5733111e-43
-0.74857616 -0.34472668 1.6800001 3.5733111e-43
-0.73304695 -0.34472668 1.6800001 3.5733111e-43
-0.72609425 -0.34477252 1.6842353 3.5733111e-43
-0.7124303 -0.34372374 1.6826668 3.5733111e-43
-0.70533144 -0.34636825 1.6880001 3.5733111e-43
-0.77437532 -0.33509421 1.688 3.5733111e-43
-0.7648533 -0.3351264 1.6862223 3.5733111e-43
-0.75516528 -0.33547306 1.6863998 3.5733111e-43
-0.74391735 -0.33234537 1.6800001 3.5733111e-43
-0.73615283 -0.33389303 1.6800002 3.5733111e-43
-0.72532892 -0.33463603 1.6837335 3.5733111e-43
-0.71423477 -0.33547059 1.6859999 3.5733111e-43
-0.77086455 -0.32770783 1.6880001 3.5733111e-43
-0.76423323 -0.32654151 1.688 3.5733111e-43
-0.75526142 -0.32615277 1.688 3.5733111e-43
-0.74391741 -0.32460704 1.6800002 3.5733111e-43
-0.73537171 -0.32432264 1.6814548 3.5733111e-43
-0.72485822 -0.32591444 1.6843079 3.5733111e-43
-0.71625358 -0.32770783 1.6880001 3.5733111e-43
-0.85106879 -0.3122257 1.6800001 2.3418409e-38
-0.76306295 -0.31837761 1.6880001 3.5733111e-43
-0.75526142 -0.31837761 1.6880001 3.5733111e-43
-0.86411333 -0.30572551 1.6800002 2.3418409e-38
-0.85495108 -0.30835652 1.6800001 2.3418409e-38
-0.86690855 -0.29613 1.6800002 2.3418409e-38
-0.25403881 -0.67142773 1.6960001 2.3418052e-38
0.49689353 -0.67142773 1.6960001 2.3509528e-38
0.50473207 -0.67142773 1.6960001 2.3509528e-38
0.51413834 -0.67142773 1.6960001 2.3509528e-38
0.52040911 -0.67142773 1.6960001 2.3509528e-38
-0.25403881 -0.66517806 1.6960001 2.3418052e-38
0.49689353 -0.66517812 1.6960001 2.3509528e-38
0.50473201 -0.66517812 1.6960001 2.3509528e-38
0.51413828 -0.66556877 1.6960001 2.3509528e-38
0.52040911 -0.66517818 1.6960001 2.3509528e-38
-0.2556065 -0.65580368 1.6960001 2.3418052e-38
0.49689353 -0.65580368 1.6960001 2.3509528e-38
0.50316441 -0.65580368 1.6960001 2.3509528e-38
0.51727378 -0.65580368 1.6960001 2.3509528e-38
0.52166331 -0.65517873 1.6960001 2.3509528e-38
-0.30107003 -0.64017963 1.6960001 2.3418052e-38
-0.25508392 -0.64642924 1.6960001 2.3418052e-38
0.49689353 -0.64799166 1.6960001 2.3509528e-38
0.50159663 -0.64799166 1.6960001 2.3509528e-38
0.51727372 -0.64955407 1.6960001 2.3509528e-38
0.52354455 -0.64590847 1.6960001 2.3509528e-38
-0.30107003 -0.63393009 1.6960001 2.3418052e-38
-0.29793462 -0.63236761 1.6960001 2.3418052e-38
-0.25299367 -0.63393003 1.6960001 2.3418052e-38
-0.24776796 -0.63080519 1.6960001 2.3418052e-38
0.52589613 -0.63471121 1.6960001 2.3509528e-38
-0.30107003 -0.62455559 1.6960001 2.3418052e-38
-0.29519111 -0.624165 1.6960001 2.3418052e-38
-0.28696066 -0.62143075 1.6960001 2.3418052e-38
-0.25278461 -0.62330568 1.6960001 2.3418052e-38
-0.24776796 -0.62611794 1.6960001 2.3418052e-38
0.52981538 -0.62455559 1.6960001 2.3509528e-38
0.53295082 -0.62455559 1.6960001 2.3509528e-38
-0.30107003 -0.61830592 1.6960001 2.3418052e-38
-0.29417214 -0.61705607 1.6960001 2.3418052e-38
-0.2857849 -0.61479056 1.6960001 2.3418052e-38
-0.26030964 -0.61518115 1.6960001 2.3418052e-38
-0.25493464 -0.61562753 1.6960002 2.3418052e-38
0.53295082 -0.61518115 1.6960001 2.3509528e-38
-0.28539297 -0.60580677 1.6960001 2.3418052e-38
-0.27703184 -0.60372353 1.6960001 2.3418052e-38
-0.26030964 -0.60736912 1.6960001 2.3418052e-38
-0.25364685 -0.6061973 1.6960001 2.3418052e-38
0.53451848 -0.60580671 1.6960001 2.3509528e-38
-0.29166383 -0.5933075 1.6960001 2.3418052e-38
-0.28382525 -0.59643233 1.6960001 2.3418052e-38
-0.27627173 -0.5944438 1.6960002 2.3418052e-38
-0.26595336 -0.59362 1.6960001 2.3418052e-38
-0.25299364 -0.59504348 1.6960001 2.3418052e-38
0.5379675 -0.59518236 1.6960001 2.3509528e-38
0.54392475 -0.59018266 1.6960001 2.3509528e-38
-0.28225753 -0.58705783 1.6960001 2.3418052e-38
-0.27441901 -0.58393306 1.6960001 2.3418052e-38
-0.2650128 -0.58393306 1.6960001 2.3418052e-38
-0.25443074 -0.58432364 1.6960001 2.3418052e-38
0.53922164 -0.583933 1.6960001 2.3509528e-38
0.54392475 -0.58393306 1.6960001 2.3509528e-38
-0.28494507 -0.5736658 1.6960002 2.3418052e-38
-0.27389646 -0.5766418 1.6960001 2.3418052e-38
-0.26458523 -0.57484275 1.6960002 2.3418052e-38
-0.2556065 -0.57455868 1.6960001 2.3418052e-38
0.5379675 -0.57393366 1.6960001 2.3509528e-38
0.54392475 -0.57768339 1.6960001 2.3509528e-38
-0.28539297 -0.56518412 1.6960001 2.3418052e-38
0.53843778 -0.56596535 1.6960001 2.3509528e-38
0.54549241 -0.56205934 1.6960001 2.3509528e-38
0.55489874 -0.56205934 1.6960001 2.3509528e-38
0.56430501 -0.56205934 1.6960001 2.3509528e-38
-0.28434783 -0.55685139 1.6960001 2.3418052e-38
0.53922164 -0.55893457 1.6960001 2.3509528e-38
0.54638833 -0.55625618 1.6960002 2.3509528e-38
0.5536446 -0.55705971 1.6960001 2.3509528e-38
0.56116956 -0.55893457 1.6960001 2.3509528e-38
-0.64439809 -0.54487288 1.6960001 3.5733111e-43
-0.63773537 -0.54448229 1.6960001 3.5733111e-43
0.55411488 -0.54487288 1.6960001 2.3509528e-38
0.56430495 -0.54331052 1.6960001 2.3509528e-38
-0.64439809 -0.5354985 1.6960001 3.5733111e-43
-0.63655961 -0.5354985 1.6960001 3.5733111e-43
0.5536446 -0.5345611 1.6960001 2.3509528e-38
-0.89052832 -0.51362479 1.6960001 3.5733111e-43
-0.64492071 -0.5151872 1.6960001 3.5733111e-43
-0.64283043 -0.5089376 1.6960001 3.5733111e-43
-0.63969505 -0.50581276 1.6960001 3.5733111e-43
-0.64283049 -0.49331352 1.6960001 3.5733111e-43
-0.63969499 -0.49956313 1.6960001 3.5733111e-43
-0.65432692 -0.48289749 1.6960001 3.5733111e-43
-0.64659292 -0.48581395 1.6960001 3.5733111e-43
-0.65380442 -0.47456467 1.6960001 3.5733111e-43
-0.64439809 -0.47300225 1.6960001 3.5733111e-43
-0.66352415 -0.46394029 1.6960001 3.5733111e-43
-0.6569398 -0.46831504 1.6960001 3.5733111e-43
-0.64753354 -0.46675262 1.6960001 3.5733111e-43
-0.66477835 -0.45269096 1.6960001 3.5733111e-43
-0.65537202 -0.45581573 1.6960001 3.5733111e-43
-0.64596581 -0.45269096 1.6960001 3.5733111e-43
-0.66556215 -0.44878495 1.6960001 3.5733111e-43
-0.65537208 -0.44487894 1.6960001 3.5733111e-43
-0.64722002 -0.44769126 1.6960001 3.5733111e-43
-0.66477835 -0.43081731 1.6960001 3.5733111e-43
-0.65641725 -0.4349837 1.6960001 3.5733111e-43
-0.67379272 -0.42417708 1.6960001 3.5733111e-43
-0.66582346 -0.42560929 1.6960001 3.5733111e-43
-0.68123925 -0.41441202 1.6960001 3.5733111e-43
-0.67418456 -0.41519326 1.6960001 3.5733111e-43
-0.66791379 -0.41519326 1.6960001 3.5733111e-43
-0.84192938 -0.40894362 1.6960001 3.5733111e-43
-0.83513594 -0.40581882 1.6960001 3.5733111e-43
-0.68045539 -0.40581882 1.6960001 3.5733111e-43
-0.67418462 -0.40581885 1.6960001 3.5733111e-43
-0.66791373 -0.40738124 1.6960001 3.5733111e-43
-0.83409083 -0.39956918 1.6960001 3.5733111e-43
-0.67446965 -0.39530808 1.6960002 3.5733111e-43
-0.82154918 -0.38082033 1.6960001 3.5733111e-43
-0.69404221 -0.38186193 1.6960001 3.5733111e-43
-0.68463594 -0.38290352 1.6960001 3.5733111e-43
-0.67732 -0.38706994 1.6960001 3.5733111e-43
-0.81527829 -0.37665391 1.6960001 3.5733111e-43
-0.8074398 -0.37300831 1.6960001 3.5733111e-43
-0.69652444 -0.37496129 1.6960001 3.5733111e-43
-0.68202311 -0.3776955 1.6960001 3.5733111e-43
-0.80273664 -0.36363387 1.6960001 3.5733111e-43
-0.70240331 -0.36363387 1.6960001 3.5733111e-43
-0.69822282 -0.3672795 1.6960001 3.5733111e-43
-0.80273664 -0.35582185 1.6960001 3.5733111e-43
-0.79960126 -0.35269701 1.6960001 3.5733111e-43
-0.70240331 -0.35269701 1.6960001 3.5733111e-43
-0.80273664 -0.34957221 1.6960001 3.5733111e-43
-0.79489815 -0.34566623 1.6960001 3.5733111e-43
-0.78549188 -0.34019777 1.6960001 3.5733111e-43
-0.71180958 -0.34176019 1.6960001 3.5733111e-43
-0.70509082 -0.34376901 1.6960002 3.5733111e-43
-0.78392416 -0.33707297 1.6960001 3.5733111e-43
-0.77765334 -0.33082336 1.6960001 3.5733111e-43
-0.71306378 -0.33332321 1.6960001 3.5733111e-43
-0.70593071 -0.33433878 1.6960001 3.5733111e-43
-0.77389085 -0.32394877 1.6960001 3.5733111e-43
-0.24750675 -0.67342001 1.705 2.3418052e-38
-0.25223482 -0.66242516 1.705 2.3418052e-38
-0.24908277 -0.66556656 1.7050002 2.3418052e-38
0.49585292 -0.66556656 1.7050002 2.3509528e-38
0.50110632 -0.66870791 1.705 2.3509528e-38
0.51450253 -0.66321051 1.705 2.3509528e-38
-0.25223482 -0.65614235 1.7050002 2.3418052e-38
-0.24908277 -0.65771306 1.705 2.3418052e-38
0.49480221 -0.65300095 1.705 2.3509528e-38
0.50741041 -0.65300095 1.705 2.3509528e-38
0.51371455 -0.65614229 1.705 2.3509528e-38
-0.30581975 -0.6404354 1.705 2.3418052e-38
-0.2532855 -0.64619458 1.7050002 2.3418052e-38
-0.24803209 -0.64148253 1.7050002 2.3418052e-38
0.49637824 -0.64828885 1.705 2.3509528e-38
0.50362796 -0.64608985 1.7050002 2.3509528e-38
0.51371455 -0.64985955 1.7050002 2.3509528e-38
0.52159464 -0.64514744 1.705 2.3509528e-38
-0.30581975 -0.63572329 1.705 2.3418052e-38
-0.25223482 -0.63729399 1.705 2.3418052e-38
-0.24671873 -0.63493794 1.705 2.3418052e-38
0.52711082 -0.63336724 1.705 2.3509528e-38
-0.24719155 -0.62410015 1.7050002 2.3418052e-38
0.52789879 -0.62472844 1.7050002 2.3509528e-38
0.53262687 -0.62158704 1.705 2.3509528e-38
-0.29478759 -0.61373353 1.705 2.3418052e-38
-0.25223482 -0.61687493 1.705 2.3418052e-38
-0.24683131 -0.61485553 1.7050002 2.3418052e-38
0.52947485 -0.61530423 1.7050002 2.3509528e-38
0.53262687 -0.61530423 1.7050002 2.3509528e-38
-0.29596958 -0.60548741 1.705 2.3418052e-38
-0.24632472 -0.60627276 1.705 2.3418052e-38
0.52947479 -0.60745072 1.705 2.3509528e-38
0.53420293 -0.60588002 1.7050002 2.3509528e-38
-0.29636359 -0.59959728 1.705 2.3418052e-38
-0.28060332 -0.59017307 1.705 2.3418052e-38
-0.24750674 -0.59488517 1.705 2.3418052e-38
0.53893095 -0.59645587 1.705 2.3509528e-38
-0.28060335 -0.58389032 1.7050002 2.3418052e-38
-0.25223482 -0.58231962 1.705 2.3418052e-38
-0.24829477 -0.58467567 1.705 2.3418052e-38
0.53893095 -0.58074892 1.705 2.3509528e-38
0.54208302 -0.58703172 1.705 2.3509528e-38
-0.28060332 -0.57603681 1.705 2.3418052e-38
-0.27474952 -0.57356864 1.7050002 2.3418052e-38
-0.26484305 -0.57132477 1.7050002 2.3418052e-38
-0.25412607 -0.57320964 1.7050002 2.3418052e-38
-0.24908277 -0.57760751 1.705 2.3418052e-38
-0.28060335 -0.56504196 1.7050002 2.3418052e-38
-0.2742992 -0.56504196 1.705 2.3418052e-38
-0.26523703 -0.56543463 1.705 2.3418052e-38
-0.25538689 -0.56818336 1.7050002 2.3418052e-38
0.53893095 -0.56818336 1.705 2.3509528e-38
-0.64308965 -0.55561775 1.705 3.5733111e-43
-0.28375539 -0.55498952 1.7050002 2.3418052e-38
-0.27429923 -0.55875915 1.7050002 2.3418052e-38
-0.26641905 -0.55875915 1.705 2.3418052e-38
0.54628581 -0.55561781 1.7050002 2.3509528e-38
0.55153918 -0.55247641 1.705 2.3509528e-38
-0.28375536 -0.549335 1.705 2.3418052e-38
-0.2569629 -0.5477643 1.705 2.3418052e-38
0.54838717 -0.5461936 1.7050002 2.3509528e-38
0.55232722 -0.5461936 1.705 2.3509528e-38
-0.64466572 -0.53205734 1.705 3.5733111e-43
-0.63836157 -0.53205734 1.705 3.5733111e-43
-0.26169097 -0.53519869 1.705 2.3418052e-38
-0.2569629 -0.53519869 1.705 2.3418052e-38
0.54838717 -0.53991079 1.705 2.3509528e-38
-0.64466572 -0.52420384 1.7050002 3.5733111e-43
-0.63914955 -0.52341849 1.705 3.5733111e-43
-0.28690743 -0.52106243 1.705 2.3418052e-38
-0.64414036 -0.51687396 1.7050002 3.5733111e-43
-0.63836157 -0.51477969 1.7050002 3.5733111e-43
-0.28690743 -0.51792103 1.705 2.3418052e-38
-0.63836157 -0.50535548 1.7050002 3.5733111e-43
-0.64308965 -0.49593133 1.7050002 3.5733111e-43
-0.63717949 -0.49553865 1.705 3.5733111e-43
-0.65359652 -0.48231864 1.7050002 3.5733111e-43
-0.64554125 -0.48371479 1.705 3.5733111e-43
-0.63468421 -0.48598358 1.7050002 3.5733111e-43
-0.62732935 -0.48336574 1.7050002 3.5733111e-43
-0.65359652 -0.47394156 1.7050002 3.5733111e-43
-0.64387769 -0.47315621 1.705 3.5733111e-43
-0.63993758 -0.47551227 1.705 3.5733111e-43
-0.66200197 -0.46608812 1.705 3.5733111e-43
-0.65569788 -0.46504098 1.7050002 3.5733111e-43
-0.64584768 -0.46412471 1.705 3.5733111e-43
-0.63993758 -0.46294671 1.705 3.5733111e-43
-0.65254581 -0.45823461 1.705 3.5733111e-43
-0.64498085 -0.45634982 1.7050002 3.5733111e-43
-0.63993758 -0.45509323 1.7050002 3.5733111e-43
-0.65254581 -0.44252765 1.705 3.5733111e-43
-0.64624172 -0.44566908 1.705 3.5733111e-43
-0.63993758 -0.44881043 1.705 3.5733111e-43
-0.65464723 -0.43519777 1.7050002 3.5733111e-43
-0.64663571 -0.43663758 1.705 3.5733111e-43
-0.66445357 -0.42402837 1.705 3.5733111e-43
-0.65687984 -0.42603537 1.705 3.5733111e-43
-0.64781773 -0.42996207 1.705 3.5733111e-43
-0.66515404 -0.41425511 1.705 3.5733111e-43
-0.65609187 -0.41386244 1.705 3.5733111e-43
-0.67145813 -0.40326023 1.705 3.5733111e-43
-0.66515398 -0.40483093 1.705 3.5733111e-43
-0.65609187 -0.40522361 1.705 3.5733111e-43
-0.64939374 -0.40640163 1.705 3.5733111e-43
-0.67224622 -0.3946214 1.705 3.5733111e-43
-0.66515398 -0.39540675 1.705 3.5733111e-43
-0.65727389 -0.39697745 1.705 3.5733111e-43
-0.68091428 -0.38441187 1.705 3.5733111e-43
-0.6746102 -0.38598254 1.705 3.5733111e-43
-0.82590884 -0.37812909 1.705 3.5733111e-43
-0.81435126 -0.37341702 1.7050002 3.5733111e-43
-0.69289219 -0.37435937 1.7050002 3.5733111e-43
-0.68375111 -0.37404522 1.7050002 3.5733111e-43
-0.67587107 -0.37781498 1.7050002 3.5733111e-43
-0.81014854 -0.36713421 1.705 3.5733111e-43
-0.70297867 -0.36242211 1.705 3.5733111e-43
-0.69552839 -0.36427841 1.7050002 3.5733111e-43
-0.68564236 -0.36713421 1.705 3.5733111e-43
-0.81014854 -0.35456866 1.705 3.5733111e-43
-0.70297873 -0.35456866 1.7050002 3.5733111e-43
-0.69825065 -0.35456869 1.7050002 3.5733111e-43
-0.80069238 -0.34514448 1.705 3.5733111e-43
-0.79754031 -0.34200308 1.705 3.5733111e-43
-0.7037667 -0.3443591 1.705 3.5733111e-43
-0.69706863 -0.34475181 1.705 3.5733111e-43
-0.79281223 -0.33886167 1.705 3.5733111e-43
-0.78650814 -0.3341496 1.705 3.5733111e-43
-0.7037667 -0.33493495 1.705 3.5733111e-43
-0.69509858 -0.3357203 1.7050002 3.5733111e-43
-0.78178006 -0.32629612 1.705 3.5733111e-43
-0.24470949 -0.67421263 1.7130001 2.3418052e-38
0.48603991 -0.67184556 1.7130001 2.3509528e-38
0.49395698 -0.67500168 1.7130002 2.3509528e-38
-0.24708465 -0.6655333 1.7130001 2.3418052e-38
0.48445651 -0.6671114 1.7130002 2.3509528e-38
0.49342918 -0.6655333 1.7130002 2.3509528e-38
-0.25025147 -0.65448689 1.7130001 2.3418052e-38
-0.24708465 -0.65606493 1.7130001 2.3418052e-38
0.49474874 -0.65685391 1.7130001 2.3509528e-38
-0.25025147 -0.64975262 1.7130001 2.3418052e-38
-0.24708463 -0.64817452 1.7130001 2.3418052e-38
0.49554044 -0.6450184 1.7130002 2.3509528e-38
0.50504094 -0.64375591 1.7130002 2.3509528e-38
0.51612496 -0.64501846 1.7130001 2.3509528e-38
0.52404201 -0.64028424 1.7130001 2.3509528e-38
-0.30725467 -0.63081586 1.7130001 2.3418052e-38
-0.24265103 -0.63334078 1.7130002 2.3418052e-38
0.49712384 -0.63712811 1.7130001 2.3509528e-38
0.50345755 -0.63712811 1.7130001 2.3509528e-38
0.51929176 -0.63397205 1.7130001 2.3509528e-38
0.52404201 -0.63397199 1.7130002 2.3509528e-38
-0.30725467 -0.62765974 1.7130001 2.3418052e-38
-0.24265106 -0.6238724 1.7130002 2.3418052e-38
0.51802504 -0.62387234 1.7130002 2.3509528e-38
0.52472067 -0.62405276 1.7130002 2.3509528e-38
-0.30092099 -0.61187905 1.7130001 2.3418052e-38
-0.24154264 -0.61582422 1.7130001 2.3418052e-38
0.5082078 -0.61187905 1.7130001 2.3509528e-38
0.51702976 -0.61458433 1.7130002 2.3509528e-38
0.52562547 -0.61503518 1.7130002 2.3509528e-38
-0.24286216 -0.6034627 1.7130001 2.3418052e-38
0.50662446 -0.6055668 1.7130002 2.3509528e-38
0.51652074 -0.60596132 1.7130002 2.3509528e-38
0.52562547 -0.60556686 1.7130002 2.3509528e-38
0.53433424 -0.60319972 1.7130001 2.3509528e-38
-0.24312606 -0.59688741 1.7130001 2.3418052e-38
0.5057196 -0.59564757 1.7130002 2.3509528e-38
0.51770836 -0.59609842 1.7130002 2.3509528e-38
0.52879226 -0.59925449 1.7130001 2.3509528e-38
0.53512603 -0.59609842 1.7130002 2.3509528e-38
0.54145968 -0.59452033 1.7130001 2.3509528e-38
-0.24550122 -0.58505195 1.7130002 2.3418052e-38
0.5066244 -0.58978617 1.7130001 2.3509528e-38
0.5177083 -0.58978611 1.7130001 2.3509528e-38
0.52879226 -0.58505189 1.7130001 2.3509528e-38
0.53512597 -0.58505189 1.7130001 2.3509528e-38
0.54145968 -0.58820808 1.7130001 2.3509528e-38
-0.28191993 -0.57400548 1.7130001 2.3418052e-38
-0.25025147 -0.57558358 1.7130001 2.3418052e-38
-0.24708463 -0.57716161 1.7130001 2.3418052e-38
0.52562547 -0.57400548 1.7130002 2.3509528e-38
0.53512603 -0.57400548 1.7130002 2.3509528e-38
-0.26291886 -0.56295896 1.7130001 2.3418052e-38
-0.25543356 -0.56482399 1.7130001 2.3418052e-38
0.52720886 -0.56769317 1.7130001 2.3509528e-38
0.53552186 -0.56493157 1.7130002 2.3509528e-38
0.54225141 -0.563748 1.7130001 2.3509528e-38
-0.28191993 -0.55349064 1.7130001 2.3418052e-38
-0.27598208 -0.55546319 1.7130002 2.3418052e-38
-0.26568985 -0.55546319 1.7130002 2.3418052e-38
-0.25436839 -0.55569994 1.7130002 2.3418052e-38
-0.24602902 -0.55296463 1.7130001 2.3418052e-38
0.53702611 -0.55569994 1.7130002 2.3509528e-38
0.54423064 -0.55467415 1.7130002 2.3509528e-38
-0.28508675 -0.54875642 1.7130001 2.3418052e-38
-0.27241939 -0.5456003 1.7130001 2.3418052e-38
-0.26648155 -0.54599476 1.7130002 2.3418052e-38
-0.25341833 -0.5456003 1.7130002 2.3418052e-38
-0.24550121 -0.54875642 1.7130001 2.3418052e-38
0.53829283 -0.54717833 1.7130001 2.3509528e-38
0.54462653 -0.54717833 1.7130002 2.3509528e-38
-0.27241939 -0.53613186 1.7130001 2.3418052e-38
-0.26766914 -0.53613186 1.7130002 2.3418052e-38
-0.25183493 -0.53613186 1.7130002 2.3418052e-38
-0.63660657 -0.52192926 1.7130001 3.5733111e-43
-0.28508675 -0.52350736 1.7130001 2.3418052e-38
-0.27241939 -0.52666348 1.7130001 2.3418052e-38
-0.26648155 -0.52705795 1.7130002 2.3418052e-38
-0.25563511 -0.5272947 1.7130002 2.3418052e-38
-0.63581485 -0.51324987 1.7130001 3.5733111e-43
-0.63383561 -0.50417602 1.7130002 3.5733111e-43
-0.63253498 -0.49465132 1.7130002 3.5733111e-43
-0.62710607 -0.49510214 1.7130001 3.5733111e-43
-0.64294022 -0.48405567 1.7130001 3.5733111e-43
-0.63819003 -0.48563379 1.7130002 3.5733111e-43
-0.62710607 -0.48563373 1.7130001 3.5733111e-43
-0.64294022 -0.4730092 1.7130001 3.5733111e-43
-0.63545495 -0.47645223 1.7130001 3.5733111e-43
-0.62710601 -0.47932148 1.7130001 3.5733111e-43
-0.64294022 -0.46985307 1.7130001 3.5733111e-43
-0.63819003 -0.46511889 1.7130002 3.5733111e-43
-0.63818997 -0.45407248 1.7130002 3.5733111e-43
-0.64294022 -0.44460401 1.7130001 3.5733111e-43
-0.63565654 -0.4439728 1.7130002 3.5733111e-43
-0.62710601 -0.44302595 1.7130001 3.5733111e-43
-0.644207 -0.43450436 1.7130002 3.5733111e-43
-0.63700241 -0.4351356 1.7130002 3.5733111e-43
-0.65470284 -0.42566732 1.7130002 3.5733111e-43
-0.64610708 -0.42566723 1.7130002 3.5733111e-43
-0.63787329 -0.42692968 1.7130002 3.5733111e-43
-0.65323251 -0.41698787 1.7130001 3.5733111e-43
-0.64610708 -0.41619882 1.7130002 3.5733111e-43
-0.65402424 -0.40199623 1.7130001 3.5733111e-43
-0.64610708 -0.40515241 1.7130001 3.5733111e-43
-0.67144185 -0.39094976 1.7130001 3.5733111e-43
-0.66431642 -0.3917388 1.7130001 3.5733111e-43
-0.65521181 -0.39371139 1.7130002 3.5733111e-43
-0.64610708 -0.39410591 1.7130002 3.5733111e-43
-0.63977337 -0.39568394 1.7130001 3.5733111e-43
-0.67144191 -0.38463748 1.7130001 3.5733111e-43
-0.66510814 -0.38463753 1.7130002 3.5733111e-43
-0.65560758 -0.38463748 1.7130002 3.5733111e-43
-0.64650297 -0.385032 1.7130002 3.5733111e-43
-0.82408375 -0.37453786 1.7130002 3.5733111e-43
-0.81711668 -0.37201297 1.7130001 3.5733111e-43
-0.68094236 -0.37201297 1.7130001 3.5733111e-43
-0.67460871 -0.37516907 1.7130002 3.5733111e-43
-0.66510814 -0.3751691 1.7130002 3.5733111e-43
-0.65687436 -0.37643155 1.7130002 3.5733111e-43
-0.64769053 -0.37832522 1.7130001 3.5733111e-43
-0.81500548 -0.36570069 1.7130001 3.5733111e-43
-0.69149864 -0.36359662 1.7130001 3.5733111e-43
-0.68371338 -0.36530617 1.7130002 3.5733111e-43
-0.67460877 -0.36570069 1.7130002 3.5733111e-43
-0.66510814 -0.36570069 1.7130002 3.5733111e-43
-0.65877444 -0.36885682 1.7130001 3.5733111e-43
-0.81500548 -0.35518026 1.7130001 3.5733111e-43
-0.69360983 -0.35623229 1.7130002 3.5733111e-43
-0.68410915 -0.35623229 1.7130002 3.5733111e-43
-0.67460871 -0.35623232 1.7130002 3.5733111e-43
-0.6661638 -0.35728437 1.7130002 3.5733111e-43
-0.81078303 -0.34992003 1.7130001 3.5733111e-43
-0.80444932 -0.34360775 1.7130001 3.5733111e-43
-0.69270498 -0.34721479 1.7130002 3.5733111e-43
-0.68410921 -0.34518585 1.7130001 3.5733111e-43
-0.67489666 -0.34561622 1.7130001 3.5733111e-43
-0.66827506 -0.34676394 1.7130001 3.5733111e-43
-0.80128247 -0.3372955 1.7130001 3.5733111e-43
-0.79494876 -0.33466539 1.7130002 3.5733111e-43
-0.78861511 -0.33098325 1.7130001 3.5733111e-43
-0.78650391 -0.32467097 1.7130001 3.5733111e-43
-0.24201584 -0.68172079 1.7220001 2.3418052e-38
-0.23883235 -0.68172079 1.7220001 2.3418052e-38
0.47745135 -0.68172079 1.7220001 2.3509528e-38
0.48381835 -0.68172085 1.7220001 2.3509528e-38
0.49018529 -0.68172079 1.7220001 2.3509528e-38
-0.24281171 -0.67458218 1.7220001 2.3418052e-38
-0.23883235 -0.67696178 1.7220001 2.3418052e-38
0.47745135 -0.6785481 1.7220001 2.3509528e-38
0.48275718 -0.67643303 1.7220001 2.3509528e-38
0.49018529 -0.6785481 1.7220001 2.3509528e-38
-0.24519932 -0.66585726 1.7220001 2.3418052e-38
0.48381835 -0.66427088 1.7220001 2.3509528e-38
0.49177703 -0.66427088 1.7220001 2.3509528e-38
-0.24519932 -0.65633911 1.7220001 2.3418052e-38
0.48541006 -0.6595118 1.7220001 2.3509528e-38
0.49177703 -0.65633911 1.7220001 2.3509528e-38
-0.24392593 -0.64491731 1.7220001 2.3418052e-38
0.48541006 -0.64523458 1.7220001 2.3509528e-38
0.49257293 -0.64523458 1.7220001 2.3509528e-38
0.51485729 -0.64126867 1.7220001 2.3509528e-38
-0.24201584 -0.63095737 1.7220001 2.3418052e-38
-0.23883235 -0.63413012 1.7220001 2.3418052e-38
0.48541006 -0.63571644 1.7220001 2.3509528e-38
0.49496055 -0.63413012 1.7220001 2.3509528e-38
0.50610268 -0.63413006 1.7220001 2.3509528e-38
0.51565313 -0.63413006 1.7220001 2.3509528e-38
-0.23883235 -0.62461197 1.7220001 2.3418052e-38
0.49893987 -0.62540513 1.7220001 2.3509528e-38
0.50610268 -0.62461185 1.7220001 2.3509528e-38
0.51406139 -0.62461197 1.7220001 2.3509528e-38
-0.24201584 -0.61192107 1.7220001 2.3418052e-38
-0.23883235 -0.61826652 1.7220001 2.3418052e-38
0.50504154 -0.61615139 1.7220001 2.3509528e-38
0.51406139 -0.61826652 1.7220001 2.3509528e-38
-0.24201584 -0.60874838 1.7220001 2.3418052e-38
0.5029192 -0.60557568 1.7220001 2.3509528e-38
0.51459199 -0.60346049 1.7220001 2.3509528e-38
0.52679533 -0.60240293 1.7220001 2.3509528e-38
-0.24201584 -0.59605753 1.7220001 2.3418052e-38
0.5029192 -0.59605753 1.7220001 2.3509528e-38
0.51485729 -0.59685069 1.7220001 2.3509528e-38
0.52679539 -0.59605753 1.7220001 2.3509528e-38
0.53157055 -0.59605753 1.7220001 2.3509528e-38
-0.24360758 -0.58495301 1.7220001 2.3418052e-38
0.50716382 -0.58548182 1.7220001 2.3509528e-38
0.51565313 -0.58495301 1.7220001 2.3509528e-38
0.5248853 -0.58590478 1.7220001 2.3509528e-38
0.53157055 -0.58336663 1.7220001 2.3509528e-38
-0.25156629 -0.57384849 1.7220001 2.3418052e-38
-0.24838279 -0.57384849 1.7220001 2.3418052e-38
0.50822502 -0.57596368 1.7220001 2.3509528e-38
0.51605105 -0.57424504 1.7220001 2.3509528e-38
0.52281594 -0.57305533 1.7220001 2.3509528e-38
-0.25156629 -0.56433034 1.7220001 2.3418052e-38
-0.24519931 -0.5643304 1.7220001 2.3418052e-38
0.51883662 -0.56750309 1.7220001 2.3509528e-38
0.52560151 -0.56472695 1.7220001 2.3509528e-38
0.53284401 -0.56369585 1.7220001 2.3509528e-38
-0.28180936 -0.5516395 1.7220001 2.3418052e-38
-0.27385068 -0.55375469 1.7220001 2.3418052e-38
-0.24281171 -0.55560541 1.7220001 2.3418052e-38
0.52732593 -0.55692738 1.7220001 2.3509528e-38
0.53435612 -0.55441558 1.7220001 2.3509528e-38
-0.28249156 -0.54484081 1.7220002 2.3418052e-38
-0.27703413 -0.54529405 1.7220001 2.3418052e-38
-0.24710941 -0.54592866 1.7220001 2.3418052e-38
0.53714168 -0.54608727 1.7220001 2.3509528e-38
0.54430449 -0.54370773 1.7220001 2.3509528e-38
0.55067146 -0.54370773 1.7220001 2.3509528e-38
-0.28340113 -0.53577596 1.7220001 2.3418052e-38
-0.27703413 -0.5357759 1.7220001 2.3418052e-38
-0.24838279 -0.5357759 1.7220001 2.3418052e-38
-0.28212771 -0.5268923 1.7220001 2.3418052e-38
-0.27464655 -0.52546459 1.7220001 2.3418052e-38
-0.26430023 -0.52387828 1.7220001 2.3418052e-38
-0.25411308 -0.52435416 1.7220001 2.3418052e-38
-0.24565412 -0.52535129 1.7220002 2.3418052e-38
-0.28499284 -0.51991236 1.7220001 2.3418052e-38
-0.26270849 -0.51832598 1.7220001 2.3418052e-38
-0.2551477 -0.51713622 1.7220001 2.3418052e-38
-0.24519932 -0.51991236 1.7220001 2.3418052e-38
-0.63040078 -0.50563514 1.7220001 3.5733111e-43
-0.26111674 -0.50246239 1.7220001 2.3418052e-38
-0.25634152 -0.50246245 1.7220001 2.3418052e-38
-0.26111674 -0.496117 1.7220001 2.3418052e-38
-0.25793326 -0.496117 1.7220001 2.3418052e-38
-0.63252312 -0.47443682 1.7220001 3.5733111e-43
-0.62721729 -0.47708073 1.7220001 3.5733111e-43
-0.6359719 -0.46518305 1.7220001 3.5733111e-43
-0.63358426 -0.45487177 1.7220001 3.5733111e-43
-0.62509495 -0.4543429 1.7220001 3.5733111e-43
-0.63199252 -0.44059449 1.7220001 3.5733111e-43
-0.62403381 -0.44376722 1.7220001 3.5733111e-43
-0.63305372 -0.43530664 1.7220001 3.5733111e-43
-0.64313471 -0.42155823 1.7220001 3.5733111e-43
-0.63716573 -0.42512751 1.7220001 3.5733111e-43
-0.64313471 -0.41521281 1.7220001 3.5733111e-43
-0.63835949 -0.41521281 1.7220001 3.5733111e-43
-0.64313471 -0.40569466 1.7220001 3.5733111e-43
-0.63782895 -0.4046371 1.7220001 3.5733111e-43
-0.64313471 -0.39300379 1.7220001 3.5733111e-43
-0.63767737 -0.39662975 1.7220002 3.5733111e-43
-0.64472646 -0.38507199 1.7220001 3.5733111e-43
-0.63889009 -0.3887735 1.7220001 3.5733111e-43
-0.83096021 -0.3739675 1.7220001 3.5733111e-43
-0.82671559 -0.37185237 1.7220001 3.5733111e-43
-0.65586865 -0.37396753 1.7220001 3.5733111e-43
-0.64950168 -0.37714022 1.7220001 3.5733111e-43
-0.82140982 -0.36444935 1.7220001 3.5733111e-43
-0.66223562 -0.36444935 1.7220001 3.5733111e-43
-0.65692985 -0.36392057 1.7220001 3.5733111e-43
-0.81822628 -0.35175848 1.7220001 3.5733111e-43
-0.6654191 -0.35704637 1.7220001 3.5733111e-43
-0.65586865 -0.35810393 1.7220001 3.5733111e-43
-0.81504279 -0.34858578 1.7220001 3.5733111e-43
-0.80867583 -0.34224033 1.7220001 3.5733111e-43
-0.80549234 -0.33589491 1.7220001 3.5733111e-43
-0.79912537 -0.33272222 1.7220001 3.5733111e-43
-0.23354848 -0.68327755 1.733 2.3418052e-38
-0.22672307 -0.68524694 1.7390002 2.3418052e-38
-0.24114732 -0.67358971 1.7310002 2.3418052e-38
-0.23434979 -0.67606574 1.7360002 2.3418052e-38
-0.22833052 -0.67563486 1.7390001 2.3418052e-38
-0.24168068 -0.66614807 1.7310002 2.3418052e-38
-0.23403542 -0.66610622 1.7336668 2.3418052e-38
-0.22833052 -0.66602278 1.7390001 2.3418052e-38
0.48537979 -0.66281867 1.7390001 2.3509528e-38
-0.24168068 -0.65498555 1.7310001 2.3418052e-38
-0.23403546 -0.65492654 1.7336669 2.3418052e-38
-0.22695269 -0.65412205 1.7390003 2.3418052e-38
0.48634699 -0.65551698 1.7310001 2.3509528e-38
-0.24008061 -0.64541763 1.7310001 2.3418052e-38
-0.2342159 -0.64370722 1.735 2.3418052e-38
-0.22725889 -0.6457305 1.7390001 2.3418052e-38
0.47834668 -0.6406337 1.7310001 2.3509528e-38
0.48506695 -0.64382297 1.7310002 2.3509528e-38
0.49274725 -0.64382297 1.7310001 2.3509528e-38
-0.23439543 -0.63407326 1.7363335 2.3418052e-38
0.47854781 -0.63469332 1.7336668 2.3509528e-38
0.48509383 -0.63289458 1.7334002 2.3509528e-38
0.4943473 -0.63106579 1.7310001 2.3509528e-38
-0.23475042 -0.62450612 1.7355716 2.3418052e-38
-0.22833051 -0.62116617 1.7390001 2.3418052e-38
0.47894996 -0.62437022 1.7390001 2.3509528e-38
0.48559305 -0.62586135 1.7372223 2.3509528e-38
0.49567455 -0.62556779 1.735667 2.3509528e-38
0.50234759 -0.62149787 1.7310001 2.3509528e-38
-0.24008062 -0.61511934 1.7310002 2.3418052e-38
-0.23403545 -0.614999 1.7336668 2.3418052e-38
-0.22833052 -0.61475819 1.7390001 2.3418052e-38
0.47834668 -0.61511928 1.7310001 2.3509528e-38
0.48551652 -0.61632276 1.7326001 2.3509528e-38
0.4952032 -0.61516792 1.7353081 2.3509528e-38
0.50199032 -0.61433405 1.7342001 2.3509528e-38
-0.24008062 -0.60555142 1.7310002 2.3418052e-38
-0.23403545 -0.6054163 1.7336668 2.3418052e-38
-0.22833052 -0.60514605 1.7390001 2.3418052e-38
0.49542639 -0.60554647 1.7390002 2.3509528e-38
0.50190103 -0.60534871 1.7350001 2.3509528e-38
-0.24008062 -0.59598351 1.7310002 2.3418052e-38
-0.23403542 -0.59583366 1.7336668 2.3418052e-38
-0.22833051 -0.59873796 1.7390001 2.3418052e-38
0.49663195 -0.5971359 1.7390001 2.3509528e-38
0.50229645 -0.59526891 1.7355716 2.3509528e-38
-0.24208069 -0.58362502 1.7310001 2.3418052e-38
-0.23455633 -0.58585638 1.735364 2.3418052e-38
-0.22833051 -0.58431977 1.7390001 2.3418052e-38
0.50517124 -0.58529276 1.7344288 2.3509528e-38
-0.24282357 -0.5745697 1.7310002 2.3418052e-38
-0.23439543 -0.57542592 1.7363335 2.3418052e-38
-0.22833052 -0.57630968 1.7390001 2.3418052e-38
0.5068202 -0.57505322 1.7340001 2.3509528e-38
0.51450819 -0.57174486 1.7310002 2.3509528e-38
-0.24008062 -0.56409061 1.7310002 2.3418052e-38
-0.23387498 -0.5641104 1.7346365 2.3418052e-38
-0.22833052 -0.5666976 1.7390001 2.3418052e-38
0.50739324 -0.5670858 1.7336668 2.3509528e-38
0.51473105 -0.56432241 1.7350001 2.3509528e-38
0.52244854 -0.56266695 1.7340001 2.3509528e-38
-0.28808242 -0.55133337 1.7310001 2.3418052e-38
-0.24088064 -0.55372536 1.7310001 2.3418052e-38
-0.23486288 -0.55400819 1.7374001 2.3418052e-38
0.51592147 -0.55708545 1.7390001 2.3509528e-38
0.52467775 -0.55452251 1.7346365 2.3509528e-38
0.53221548 -0.55239648 1.7310002 2.3509528e-38
-0.28808242 -0.54814404 1.7310001 2.3418052e-38
-0.24288073 -0.54455614 1.7310001 2.3418052e-38
-0.23476031 -0.54426938 1.7390002 2.3418052e-38
0.52595729 -0.54540938 1.7350001 2.3509528e-38
-0.24328072 -0.53538686 1.7310001 2.3418052e-38
-0.2339904 -0.53486991 1.7367145 2.3418052e-38
-0.28168219 -0.52422434 1.7310001 2.3418052e-38
-0.27608198 -0.52342701 1.7310001 2.3418052e-38
-0.26888171 -0.52262968 1.7310001 2.3418052e-38
-0.24008062 -0.525819 1.7310002 2.3418052e-38
-0.23451264 -0.52582943 1.7345557 2.3418052e-38
-0.22833051 -0.52664709 1.7390001 2.3418052e-38
-0.28439748 -0.51623863 1.7345557 2.3418052e-38
-0.27528194 -0.51625109 1.7310001 2.3418052e-38
-0.26613873 -0.51533985 1.7310002 2.3418052e-38
-0.25528118 -0.51385915 1.7310001 2.3418052e-38
-0.2448808 -0.51625121 1.7310003 2.3418052e-38
-0.23628464 -0.5156647 1.7367145 2.3418052e-38
-0.28168219 -0.50349391 1.7310002 2.3418052e-38
-0.27538672 -0.50528121 1.7316669 2.3418052e-38
-0.26674831 -0.50562012 1.7310001 2.3418052e-38
-0.25470972 -0.50577199 1.7310002 2.3418052e-38
-0.2448808 -0.50508857 1.7310004 2.3418052e-38
-0.23636779 -0.50582087 1.7390002 2.3418052e-38
-0.28298399 -0.4994128 1.7390001 2.3418052e-38
-0.27591121 -0.49588838 1.7390002 2.3418052e-38
-0.26568159 -0.49392608 1.7310002 2.3418052e-38
-0.25568119 -0.49352735 1.7310001 2.3418052e-38
-0.24506573 -0.49430773 1.7323335 2.3418052e-38
-0.23476034 -0.49620879 1.7390002 2.3418052e-38
-0.27333927 -0.48543152 1.7390002 2.3418052e-38
-0.26376489 -0.48414809 1.7375457 2.3418052e-38
-0.25530222 -0.48431864 1.7366002 2.3418052e-38
-0.24493359 -0.48382169 1.7336671 2.3418052e-38
-0.23476033 -0.48499462 1.7390002 2.3418052e-38
-0.63261348 -0.47330204 1.7355715 3.5733111e-43
-0.27333927 -0.47378048 1.7390002 2.3418052e-38
-0.26369452 -0.47378048 1.7390002 2.3418052e-38
-0.25404978 -0.47378048 1.7390002 2.3418052e-38
-0.24440506 -0.47378048 1.7390002 2.3418052e-38
-0.23797524 -0.47378048 1.7390001 2.3418052e-38
-0.63369554 -0.46681702 1.7310001 3.5733111e-43
-0.62729526 -0.46522236 1.7310001 3.5733111e-43
-0.2745083 -0.46445966 1.7390002 2.3418052e-38
-0.26369455 -0.46416834 1.7390002 2.3418052e-38
-0.25404978 -0.46737242 1.7390001 2.3418052e-38
-0.24440508 -0.46737242 1.7390001 2.3418052e-38
-0.27398226 -0.45647869 1.7390002 2.3418052e-38
-0.26369455 -0.4577603 1.7390001 2.3418052e-38
-0.62697947 -0.44174013 1.7390001 3.5733111e-43
-0.63156217 -0.4338609 1.7310002 3.5733111e-43
-0.62640536 -0.43479472 1.7354447 3.5733111e-43
-0.633551 -0.42409989 1.7350003 3.5733111e-43
-0.62451404 -0.42550069 1.7381113 3.5733111e-43
-0.64009577 -0.4110043 1.7310001 3.5733111e-43
-0.6340369 -0.41546854 1.7363336 3.5733111e-43
-0.62505054 -0.41738945 1.7390002 3.5733111e-43
-0.63319379 -0.40569445 1.7368183 3.5733111e-43
-0.63385373 -0.39414009 1.7346367 3.5733111e-43
-0.6428656 -0.3841143 1.732 3.5733111e-43
-0.63510972 -0.38507316 1.7363337 3.5733111e-43
-0.65283048 -0.37330204 1.7336668 3.5733111e-43
-0.64680713 -0.37543479 1.7361432 3.5733111e-43
-0.63823164 -0.37765938 1.7390001 3.5733111e-43
-0.83299839 -0.36446816 1.7342001 3.5733111e-43
-0.82905698 -0.36517543 1.733 3.5733111e-43
-0.65469676 -0.36705166 1.732143 3.5733111e-43
-0.64661163 -0.3646754 1.7382002 3.5733111e-43
-0.67209697 -0.35200232 1.7310001 3.5733111e-43
-0.66569674 -0.35359696 1.7310001 3.5733111e-43
-0.82308906 -0.34722102 1.7390001 3.5733111e-43
-0.81610245 -0.34402907 1.7310002 3.5733111e-43
-0.81505179 -0.33760893 1.7390001 3.5733111e-43
-0.80330199 -0.33127186 1.7310001 3.5733111e-43
-0.2230491 -0.69201392 1.748 2.3418052e-38
-0.22466488 -0.68557268 1.748 2.3418052e-38
-0.22628066 -0.67591089 1.748 2.3418052e-38
-0.22628066 -0.66624898 1.748 2.3418052e-38
-0.2230491 -0.65336657 1.748 2.3418052e-38
-0.22692697 -0.6443488 1.748 2.3418052e-38
-0.23274375 -0.63082218 1.748 2.3418052e-38
-0.22951221 -0.63404286 1.748 2.3418052e-38
-0.22628066 -0.62330741 1.748 2.3418052e-38
-0.2246649 -0.61471915 1.748 2.3418052e-38
0.48659918 -0.61536324 1.748 2.3509528e-38
0.49112332 -0.61310875 1.748 2.3509528e-38
-0.2246649 -0.60505724 1.748 2.3418052e-38
0.48789176 -0.60827786 1.748 2.3509528e-38
0.4924159 -0.60441315 1.748 2.3509528e-38
-0.22870433 -0.59459019 1.748 2.3418052e-38
0.49489349 -0.59539545 1.748 2.3509528e-38
0.50189519 -0.59324831 1.748 2.3509528e-38
-0.22498803 -0.58637768 1.748 2.3418052e-38
0.49650925 -0.58788061 1.748 2.3509528e-38
0.50243378 -0.58573353 1.748 2.3509528e-38
-0.22628066 -0.57607168 1.748 2.3418052e-38
0.50458813 -0.57607174 1.748 2.3509528e-38
-0.22735785 -0.56640983 1.748 2.3418052e-38
0.50728106 -0.56802011 1.748 2.3509528e-38
0.51158988 -0.56426281 1.748 2.3509528e-38
-0.22843504 -0.55406415 1.748 2.3418052e-38
0.51482135 -0.55621117 1.748 2.3509528e-38
0.52149993 -0.55288327 1.748 2.3509528e-38
-0.22789644 -0.54386556 1.748 2.3418052e-38
-0.22757328 -0.53484768 1.748 2.3418052e-38
-0.23274375 -0.52293146 1.748 2.3418052e-38
-0.22843504 -0.5245418 1.748 2.3418052e-38
-0.23274377 -0.51487994 1.748 2.3418052e-38
-0.22951221 -0.51487988 1.748 2.3418052e-38
-0.23274375 -0.50682831 1.748 2.3418052e-38
-0.22951221 -0.50521803 1.748 2.3418052e-38
-0.22821961 -0.49491206 1.748 2.3418052e-38
-0.28121704 -0.48589432 1.748 2.3418052e-38
-0.27798545 -0.48750463 1.748 2.3418052e-38
-0.22789645 -0.48589429 1.748 2.3418052e-38
-0.2828328 -0.4762325 1.748 2.3418052e-38
-0.23435955 -0.47623247 1.748 2.3418052e-38
-0.22951221 -0.47623247 1.748 2.3418052e-38
-0.28121701 -0.46173969 1.748 2.3418052e-38
-0.25536463 -0.46399412 1.748 2.3418052e-38
-0.24566998 -0.46334997 1.748 2.3418052e-38
-0.23736028 -0.46657065 1.7480001 2.3418052e-38
-0.27346125 -0.45368814 1.748 2.3418052e-38
-0.26552093 -0.45460832 1.7480001 2.3418052e-38
-0.25213307 -0.45690876 1.748 2.3418052e-38
-0.24566996 -0.45690879 1.748 2.3418052e-38
-0.23920687 -0.45690876 1.748 2.3418052e-38
-0.25213307 -0.44080567 1.748 2.3418052e-38
-0.24486208 -0.44161081 1.748 2.3418052e-38
-0.23920687 -0.44241598 1.748 2.3418052e-38
-0.25213307 -0.43758506 1.748 2.3418052e-38
-0.24566996 -0.43758506 1.748 2.3418052e-38
-0.23920687 -0.43758506 1.748 2.3418052e-38
-0.63022441 -0.41182011 1.748 3.5733111e-43
-0.62468457 -0.41458067 1.7480001 3.5733111e-43
-0.63103229 -0.40457371 1.748 3.5733111e-43
-0.62456918 -0.40779436 1.748 3.5733111e-43
-0.61729819 -0.4085995 1.748 3.5733111e-43
-0.63345593 -0.39893761 1.748 3.5733111e-43
-0.63264805 -0.38363966 1.748 3.5733111e-43
-0.64315057 -0.37478298 1.748 3.5733111e-43
-0.63507169 -0.3757492 1.748 3.5733111e-43
-0.64315057 -0.36512113 1.748 3.5733111e-43
-0.63576424 -0.3655813 1.7479998 3.5733111e-43
-0.83058047 -0.35223866 1.748 3.5733111e-43
-0.22094935 -0.6939584 1.7570001 2.3418052e-38
-0.22419755 -0.6858654 1.7570002 2.3418052e-38
-0.22419755 -0.67615384 1.7570002 2.3418052e-38
-0.22289827 -0.66579473 1.7570002 2.3418052e-38
-0.22094935 -0.65511197 1.7570001 2.3418052e-38
-0.22549681 -0.6431343 1.7570002 2.3418052e-38
-0.22582164 -0.63407016 1.7570002 2.3418052e-38
-0.22289827 -0.62565339 1.7570002 2.3418052e-38
-0.22094935 -0.61464691 1.7570002 2.3418052e-38
-0.2233855 -0.60412604 1.7570001 2.3418052e-38
0.48715565 -0.60493535 1.7570002 2.3509528e-38
0.49040383 -0.60493535 1.7570002 2.3509528e-38
-0.22419754 -0.59603304 1.7570001 2.3418052e-38
0.48715565 -0.59360516 1.7570001 2.3509528e-38
0.49202794 -0.59522372 1.7570002 2.3509528e-38
-0.22311482 -0.58551216 1.7570002 2.3418052e-38
0.48715565 -0.58874935 1.7570001 2.3509528e-38
0.49495131 -0.58680707 1.7570002 2.3509528e-38
0.50014842 -0.58389354 1.7570001 2.3509528e-38
-0.22419755 -0.5758006 1.7570002 2.3418052e-38
0.50246853 -0.57533813 1.7570002 2.3509528e-38
-0.2254968 -0.56544149 1.7570002 2.3418052e-38
0.50745678 -0.56689823 1.7570001 2.3509528e-38
-0.22500959 -0.5571866 1.7570001 2.3418052e-38
0.51530665 -0.55637735 1.7570002 2.3509528e-38
-0.22419754 -0.54504716 1.7570001 2.3418052e-38
-0.22419755 -0.53371692 1.7570002 2.3418052e-38
-0.22744572 -0.52400529 1.7570002 2.3418052e-38
-0.22744572 -0.51429373 1.7570002 2.3418052e-38
-0.22663367 -0.50377285 1.7570001 2.3418052e-38
-0.22419755 -0.49487051 1.7570002 2.3418052e-38
-0.22500959 -0.48434961 1.7570001 2.3418052e-38
-0.23069391 -0.47221008 1.7570001 2.3418052e-38
-0.22663367 -0.47625655 1.7570001 2.3418052e-38
-0.23353609 -0.46533102 1.7570001 2.3418052e-38
-0.22744572 -0.46573567 1.7570002 2.3418052e-38
-0.26479989 -0.45278686 1.7570001 2.3418052e-38
-0.25570497 -0.45537663 1.7570002 2.3418052e-38
-0.24368666 -0.45440552 1.7570002 2.3418052e-38
-0.23394211 -0.45602408 1.7570001 2.3418052e-38
-0.22582164 -0.45602411 1.7570002 2.3418052e-38
-0.26642397 -0.44631249 1.7570001 2.3418052e-38
-0.25570497 -0.44695988 1.7570002 2.3418052e-38
-0.2444987 -0.44874036 1.7570001 2.3418052e-38
-0.23394211 -0.44631249 1.7570001 2.3418052e-38
-0.22663367 -0.44712177 1.7570001 2.3418052e-38
-0.26479989 -0.43660089 1.7570002 2.3418052e-38
-0.25505534 -0.43498227 1.7570002 2.3418052e-38
-0.24368665 -0.43336365 1.7570001 2.3418052e-38
-0.23434813 -0.43700546 1.7570001 2.3418052e-38
-0.22744572 -0.43983805 1.7570001 2.3418052e-38
-0.63130379 -0.40207073 1.7570002 3.5733111e-43
-0.62418872 -0.40515381 1.7570002 3.5733111e-43
-0.63184512 -0.39451727 1.7570002 3.5733111e-43
-0.62480742 -0.39397773 1.7570002 3.5733111e-43
-0.63103312 -0.38399634 1.7570001 3.5733111e-43
-0.62567359 -0.38545308 1.7570002 3.5733111e-43
-0.63022107 -0.37509403 1.7570002 3.5733111e-43
-0.62697285 -0.37509403 1.7570002 3.5733111e-43
-0.84135324 -0.36214525 1.7570001 3.5733111e-43
-0.84135324 -0.35567084 1.7570001 3.5733111e-43
-0.83810508 -0.35405225 1.7570001 3.5733111e-43
-0.22208114 -0.69263238 1.766 2.3418052e-38
-0.21718392 -0.69588614 1.766 2.3418052e-38
-0.22208115 -0.6861248 1.7660002 2.3418052e-38
-0.21718389 -0.6861248 1.766 2.3418052e-38
-0.22208115 -0.67636347 1.7660002 2.3418052e-38
-0.21685742 -0.67506188 1.766 2.3418052e-38
-0.2155515 -0.66497529 1.7660002 2.3418052e-38
-0.22208114 -0.65033317 1.766 2.3418052e-38
-0.21881631 -0.65521383 1.766 2.3418052e-38
-0.22208115 -0.64382565 1.7660002 2.3418052e-38
-0.22208114 -0.63569117 1.766 2.3418052e-38
-0.21800011 -0.63325083 1.766 2.3418052e-38
-0.21718389 -0.62430292 1.766 2.3418052e-38
-0.21718389 -0.61454153 1.766 2.3418052e-38
-0.22208114 -0.60315335 1.766 2.3418052e-38
-0.21881633 -0.60478026 1.7660002 2.3418052e-38
0.48801863 -0.60152644 1.766 2.3509528e-38
-0.22208114 -0.59827268 1.766 2.3418052e-38
-0.21881633 -0.59501886 1.7660002 2.3418052e-38
0.48638624 -0.59501886 1.7660002 2.3509528e-38
-0.22208115 -0.58525753 1.7660002 2.3418052e-38
-0.21881633 -0.58525753 1.7660002 2.3418052e-38
0.48965105 -0.58525753 1.7660002 2.3509528e-38
0.49524793 -0.58479279 1.766 2.3509528e-38
-0.22208115 -0.5754962 1.7660002 2.3418052e-38
-0.21881633 -0.5754962 1.7660002 2.3418052e-38
0.49618071 -0.57712305 1.766 2.3509528e-38
0.50271034 -0.57224238 1.766 2.3509528e-38
-0.22208115 -0.56573486 1.7660002 2.3418052e-38
-0.21881633 -0.56573486 1.7660002 2.3418052e-38
0.50760764 -0.56573486 1.766 2.3509528e-38
0.51250482 -0.56248105 1.766 2.3509528e-38
-0.22208115 -0.55597347 1.7660002 2.3418052e-38
-0.21881633 -0.55597347 1.7660002 2.3418052e-38
-0.22208115 -0.54621214 1.7660002 2.3418052e-38
-0.21881633 -0.54621214 1.7660002 2.3418052e-38
-0.22208115 -0.5364508 1.7660002 2.3418052e-38
-0.21881633 -0.5364508 1.7660002 2.3418052e-38
-0.22371356 -0.52506256 1.7659999 2.3418052e-38
-0.22371356 -0.51367426 1.766 2.3418052e-38
-0.22289735 -0.50472641 1.766 2.3418052e-38
-0.22208115 -0.49415159 1.7660002 2.3418052e-38
-0.22208115 -0.48439026 1.7660002 2.3418052e-38
-0.22371356 -0.47462893 1.766 2.3418052e-38
-0.22338705 -0.46551839 1.766 2.3418052e-38
-0.21881631 -0.4616138 1.766 2.3418052e-38
-0.22208115 -0.45510626 1.7660002 2.3418052e-38
-0.21881633 -0.45510623 1.7660002 2.3418052e-38
-0.27323008 -0.44534492 1.7660002 2.3418052e-38
-0.22371356 -0.4453449 1.766 2.3418052e-38
-0.21881631 -0.44697177 1.766 2.3418052e-38
-0.62528718 -0.40304571 1.766 3.5733111e-43
-0.62528718 -0.39979193 1.766 3.5733111e-43
-0.62691957 -0.38189614 1.766 3.5733111e-43
-0.84239811 -0.35098517 1.766 3.5733111e-43
-0.83913332 -0.35098517 1.766 3.5733111e-43
-0.83586848 -0.34773138 1.766 3.5733111e-43
-0.21348873 -0.70309883 1.7760001 2.3418052e-38
-0.2120816 -0.69421715 1.7760003 2.3418052e-38
-0.21307832 -0.68305659 1.7760001 2.3418052e-38
-0.21020541 -0.67364901 1.7760003 2.3418052e-38
-0.2121754 -0.66252345 1.7760003 2.3418052e-38
-0.22005536 -0.65237963 1.7760001 2.3418052e-38
-0.21348873 -0.65401578 1.7760001 2.3418052e-38
-0.22005536 -0.64583522 1.7760001 2.3418052e-38
-0.21348874 -0.64419919 1.7760001 2.3418052e-38
-0.21255066 -0.63484997 1.7760003 2.3418052e-38
-0.21184707 -0.62456596 1.7760003 2.3418052e-38
-0.21430954 -0.61393124 1.7760001 2.3418052e-38
-0.21545871 -0.60558707 1.7760003 2.3418052e-38
0.48695147 -0.60493267 1.7760003 2.3509528e-38
-0.21677205 -0.59511602 1.7760003 2.3418052e-38
-0.21545871 -0.58464497 1.7760003 2.3418052e-38
-0.21389914 -0.57589185 1.7760001 2.3418052e-38
0.4989903 -0.57548279 1.7760001 2.3509528e-38
0.50336808 -0.57330132 1.7760003 2.3509528e-38
-0.21389915 -0.56525713 1.7760001 2.3418052e-38
0.50555694 -0.56566614 1.7760003 2.3509528e-38
-0.21545874 -0.55584949 1.7760003 2.3418052e-38
-0.2156776 -0.54821438 1.7760003 2.3418052e-38
-0.22005536 -0.53294408 1.7760001 2.3418052e-38
-0.21677205 -0.53621626 1.7760003 2.3418052e-38
-0.22005537 -0.52639973 1.7760003 2.3418052e-38
-0.21677205 -0.52639961 1.7760003 2.3418052e-38
-0.22005536 -0.51494694 1.7760001 2.3418052e-38
-0.21677203 -0.51494694 1.7760001 2.3418052e-38
-0.22005537 -0.5034942 1.7760003 2.3418052e-38
-0.21677205 -0.5034942 1.7760003 2.3418052e-38
-0.22005537 -0.49367759 1.7760003 2.3418052e-38
-0.21677205 -0.49367759 1.7760003 2.3418052e-38
-0.22005537 -0.48386094 1.7760003 2.3418052e-38
-0.21677203 -0.48386091 1.7760001 2.3418052e-38
-0.22005537 -0.47404429 1.7760003 2.3418052e-38
-0.21677205 -0.47404432 1.7760003 2.3418052e-38
-0.22005536 -0.46749988 1.7760001 2.3418052e-38
-0.21677205 -0.46422768 1.7760003 2.3418052e-38
-0.21545871 -0.45506549 1.7760003 2.3418052e-38
-0.62718624 -0.39223909 1.7760001 3.5733111e-43
-0.62636542 -0.38487661 1.7760001 3.5733111e-43
-0.84388494 -0.34970042 1.7760001 3.5733111e-43
-0.21127065 -0.70501745 1.7850001 2.3418052e-38
-0.20797071 -0.70337307 1.7850002 2.3418052e-38
-0.20797071 -0.68364036 1.7850002 2.3418052e-38
-0.20797071 -0.67377394 1.7850002 2.3418052e-38
-0.20797071 -0.66390753 1.7850002 2.3418052e-38
-0.20797071 -0.65404123 1.7850002 2.3418052e-38
-0.21127065 -0.6211533 1.7850001 2.3418052e-38
-0.21127066 -0.61457574 1.7850002 2.3418052e-38
-0.2145706 -0.60306495 1.7850001 2.3418052e-38
-0.21325062 -0.59418517 1.7850001 2.3418052e-38
-0.21127065 -0.58662105 1.7850001 2.3418052e-38
0.49491909 -0.58168781 1.7850001 2.3509528e-38
-0.21127065 -0.57346582 1.7850001 2.3418052e-38
0.49711907 -0.57730281 1.7850002 2.3509528e-38
0.50261897 -0.5729177 1.7850002 2.3509528e-38
-0.21127065 -0.56195509 1.7850001 2.3418052e-38
0.50316894 -0.5652439 1.7850001 2.3509528e-38
-0.21209563 -0.55619967 1.7850001 2.3418052e-38
-0.2145706 -0.54616892 1.7850001 2.3418052e-38
-0.21457061 -0.53564477 1.7850002 2.3418052e-38
-0.21457061 -0.52577841 1.7850002 2.3418052e-38
-0.21457061 -0.51591206 1.7850002 2.3418052e-38
-0.21457061 -0.5060457 1.7850002 2.3418052e-38
-0.21457061 -0.49617931 1.7850002 2.3418052e-38
-0.21539558 -0.48631293 1.7850001 2.3418052e-38
-0.21457061 -0.47644657 1.7850002 2.3418052e-38
-0.21457061 -0.46658015 1.7850002 2.3418052e-38
-0.2145706 -0.45178062 1.7850001 2.3418052e-38
-0.8536613 -0.35476133 1.7850002 3.5733111e-43
-0.20680824 -0.70361418 1.794 2.3418052e-38
-0.20901929 -0.69535065 1.794 2.3418052e-38
-0.20570271 -0.6738658 1.794 2.3418052e-38
-0.20570271 -0.66394973 1.794 2.3418052e-38
-0.20653182 -0.65320718 1.794 2.3418052e-38
-0.20769265 -0.64477849 1.794 2.3418052e-38
-0.20901929 -0.63420129 1.794 2.3418052e-38
-0.20901929 -0.62428516 1.794 2.3418052e-38
-0.21233588 -0.61106372 1.794 2.3418052e-38
-0.20901929 -0.61436909 1.794 2.3418052e-38
-0.21233588 -0.60445297 1.794 2.3418052e-38
-0.20901929 -0.59123147 1.794 2.3418052e-38
-0.20769265 -0.58395964 1.794 2.3418052e-38
-0.20819014 -0.57387823 1.794 2.3418052e-38
0.50073111 -0.57470459 1.794 2.3509528e-38
-0.20791376 -0.56699216 1.794 2.3418052e-38
-0.21233588 -0.54826164 1.794 2.3418052e-38
-0.21233588 -0.53504014 1.794 2.3418052e-38
-0.21233588 -0.52512407 1.794 2.3418052e-38
-0.21233588 -0.51355529 1.794 2.3418052e-38
-0.21233588 -0.50529188 1.794 2.3418052e-38
-0.21233588 -0.49537572 1.794 2.3418052e-38
-0.21233588 -0.4771961 1.794 2.3418052e-38
-0.21233588 -0.46562731 1.794 2.3418052e-38
-0.21233588 -0.45571122 1.794 2.3418052e-38
-0.85907096 -0.35324466 1.794 3.5733111e-43
-0.2028472 -0.71285427 1.8040001 2.3418052e-38
-0.20407008 -0.70421237 1.8040001 2.3418052e-38
-0.20518178 -0.69424093 1.8040001 2.3418052e-38
-0.20484827 -0.68493432 1.8040001 2.3418052e-38
-0.20351423 -0.67263627 1.8040001 2.3418052e-38
-0.20184669 -0.66432679 1.8040001 2.3418052e-38
-0.20184669 -0.65435541 1.8040001 2.3418052e-38
-0.20309734 -0.64396852 1.804 2.3418052e-38
-0.20393111 -0.63441259 1.804 2.3418052e-38
-0.20351422 -0.62444121 1.804 2.3418052e-38
-0.21018438 -0.61114603 1.8040001 2.3418052e-38
-0.20351423 -0.61446983 1.804 2.3418052e-38
-0.21018438 -0.60449851 1.8040003 2.3418052e-38
-0.20351423 -0.60449851 1.804 2.3418052e-38
-0.21018438 -0.59785086 1.8040001 2.3418052e-38
-0.20446712 -0.59500194 1.8040001 2.3418052e-38
-0.20256135 -0.58408087 1.8040001 2.3418052e-38
-0.20256135 -0.57505912 1.8040001 2.3418052e-38
-0.21018438 -0.56295097 1.8040001 2.3418052e-38
-0.20393111 -0.56502831 1.804 2.3418052e-38
-0.21018438 -0.55464149 1.8040003 2.3418052e-38
-0.20601556 -0.55547243 1.8040001 2.3418052e-38
-0.21151841 -0.54533488 1.8040001 2.3418052e-38
-0.2055153 -0.54400533 1.8040001 2.3418052e-38
-0.21018438 -0.53469872 1.8040003 2.3418052e-38
-0.20518178 -0.53469872 1.8040001 2.3418052e-38
-0.21101816 -0.5238964 1.8040001 2.3418052e-38
-0.20518178 -0.52472734 1.8040001 2.3418052e-38
-0.21018438 -0.51475596 1.8040003 2.3418052e-38
-0.20518178 -0.51475596 1.8040001 2.3418052e-38
-0.21018438 -0.50478452 1.8040003 2.3418052e-38
-0.20518178 -0.50478458 1.8040001 2.3418052e-38
-0.21101816 -0.4939822 1.8040001 2.3418052e-38
-0.20684931 -0.49481317 1.8040003 2.3418052e-38
-0.21151844 -0.48550653 1.8040001 2.3418052e-38
-0.20518178 -0.48484179 1.8040001 2.3418052e-38
-0.21101816 -0.47487038 1.8040001 2.3418052e-38
-0.20518178 -0.47487041 1.8040001 2.3418052e-38
