# .PCD v0.7 - Point Cloud Data file format
VERSION 0.7
FIELDS x y z normal_x normal_y normal_z curvature
SIZE 4 4 4 4 4 4 4
TYPE F F F F F F F
COUNT 1 1 1 1 1 1 1
WIDTH 571
HEIGHT 1
VIEWPOINT 0 0 0 1 0 0 0
POINTS 571
DATA ascii
-0.02182357 0.0044799387 0.058954339 0.95285589 -0.25097162 -0.19257574 0.076375604
0.021269331 0.00308562 0.058300376 0.97065568 0.15481561 0.19699977 0.10112271
0.021198453 0.00070550764 0.057249084 0.98633111 0.037507918 0.18148245 0.079312757
-0.021055788 0.0067075957 0.058636028 0.92265147 -0.35275412 -0.16494033 0.062805019
-0.021090912 0.0068883528 0.059083622 0.91528809 -0.35936689 -0.18448479 0.068538405
-0.020779058 0.0086964248 0.057638094 0.87875342 -0.44114077 -0.18342599 0.08670757
0.019942323 0.0085973488 0.058247149 0.92168564 0.3414253 0.20625857 0.11020367
0.020527381 0.0069605354 0.057560984 0.93548244 0.30150446 0.18549001 0.087845221
-0.020563869 0.0090529155 0.058158092 0.90426999 -0.40387025 -0.15705705 0.06919422
-0.01967312 0.010999173 0.057605978 0.84506053 -0.50751913 -0.16888714 0.068814762
-0.018195774 0.013298607 0.05780907 0.77929443 -0.60247344 -0.17716537 0.083868735
-0.015010362 0.016434256 0.057695653 0.66448462 -0.73432052 -0.17792548 0.10025941
0.014674541 0.015151206 0.058806367 -0.71612704 -0.6747061 -0.20662616 0.090069182
0.017329702 0.01296736 0.057374969 0.82612026 0.5421192 0.19831674 0.099473447
0.019198807 0.010140851 0.056427881 0.87283993 0.4587014 0.16732365 0.076307841
-0.016143067 0.015616432 0.057042208 0.6759057 -0.7185964 -0.16385503 0.086401865
-0.012586266 0.017442824 0.057268728 0.58351487 -0.81884849 -0.17690258 0.077010334
-0.0081431577 0.018985653 0.058464281 0.3605583 -0.92263758 -0.1899959 0.077214442
-0.0025467072 0.019337103 0.058269244 0.098193921 -0.9819752 -0.19315046 0.073608279
0.0032736631 0.019202877 0.058258325 -0.17667079 -0.9664765 -0.18654923 0.064840458
0.0069987788 0.018696479 0.058573391 -0.35074154 -0.9148308 -0.20441768 0.074722841
0.01210577 0.016868647 0.057823334 -0.59165245 -0.78652698 -0.19809696 0.080747828
0.014965512 0.015167583 0.057194572 -0.7237379 -0.67471647 -0.1879385 0.089564584
-0.011072421 0.018446626 0.054883838 0.47484598 -0.87458229 -0.14973882 0.067271248
-0.0067582638 0.019392848 0.056383897 0.27167758 -0.95322043 -0.16572687 0.056492921
-0.0022774322 0.019511156 0.056618366 0.070414729 -0.98626244 -0.17633733 0.059508003
0.0021897079 0.019608431 0.056076221 -0.12465337 -0.97825342 -0.16773576 0.060551722
0.006582344 0.018960465 0.056399509 -0.32672712 -0.93130004 -0.16429216 0.068367682
-0.00077007106 -0.022029091 0.061360151 0.064584941 -0.96790487 0.25010422 0.078262411
0.0025065918 -0.020603037 0.062456347 0.23023821 -0.94500273 0.24363902 0.069309078
0.00570266 -0.019470826 0.060956094 0.39789903 -0.89185852 0.21993738 0.063520849
-0.015515182 -0.015440558 0.061091248 0.66912585 0.70682091 -0.24791642 0.085950151
0.0041588889 -0.019411197 0.06438563 0.30267763 -0.90900284 0.29036775 0.085468195
0.0080613038 -0.017449614 0.062452544 0.4849157 -0.84630328 0.23976578 0.073078625
0.010672113 -0.016012534 0.060696445 0.614173 -0.77293617 0.20757423 0.05751273
-0.016752189 -0.012138544 0.06202215 0.77225274 0.57233471 -0.28505296 0.094284885
0.010774018 -0.014607989 0.065027855 0.62146378 -0.74813479 0.27095872 0.073183849
0.013159685 -0.013217989 0.062751494 0.73059499 -0.65628588 0.22439364 0.061026011
0.015059287 -0.011482053 0.060660336 0.81288618 -0.5737837 0.17991193 0.045052622
-0.02012834 -0.0070938743 0.060010985 0.9261018 0.28836271 -0.24369845 0.084401883
-0.019206807 -0.0079073133 0.061002478 0.89789242 0.3454574 -0.27338722 0.09212514
0.017326238 -0.0079799434 0.062061094 0.89340818 -0.41155201 0.20494014 0.057779141
0.019867696 -0.0018359974 0.063994095 0.96327406 -0.067348398 0.26085487 0.11263131
0.020263679 -0.0022404096 0.061957739 0.96820623 -0.11133575 0.22525142 0.095807306
0.020467062 0.00266519 0.063157395 0.95705211 0.13877076 0.25798252 0.10950458
0.020563336 0.0042895689 0.060353924 0.96264672 0.1837617 0.20361097 0.073310018
-0.020923987 0.0071240943 0.060315628 0.91938078 -0.35070777 -0.17964537 0.066370875
-0.019599259 0.0095098894 0.062684678 0.85516769 -0.46447846 -0.23641144 0.092936158
0.017018553 0.011941734 0.063712262 0.84703052 0.4744727 0.29196072 0.121556
0.019135369 0.0082055843 0.062685326 0.91947609 0.32492539 0.24774511 0.097306266
0.019532168 0.0075458079 0.061632514 0.91094208 0.35248163 0.22056383 0.080453135
-0.020790283 0.0079735294 0.059476443 0.91026402 -0.37660584 -0.17445716 0.067542054
-0.020248819 0.0090694204 0.059845272 0.87515712 -0.44656464 -0.19397487 0.071397901
-0.017730696 0.012825416 0.062505096 0.78477359 -0.58039159 -0.23654082 0.10437647
-0.014743817 0.015607076 0.063020401 0.68768555 -0.70434034 -0.24463706 0.10622124
-0.0097748898 0.017095815 0.064582057 0.49269173 -0.85209942 -0.27726141 0.10679886
0.010306718 0.017109316 0.063277803 -0.51427704 -0.80949634 -0.28556308 0.09923514
0.013636751 0.014997808 0.063140064 -0.70978665 -0.66897762 -0.26845714 0.099081017
0.016930833 0.012014817 0.062491436 0.83025068 0.51812702 0.23827226 0.088794261
0.01830698 0.0099972803 0.061918329 0.85578358 0.47259885 0.21841837 0.072369404
-0.015461488 0.015383509 0.06130274 0.70513314 -0.69454473 -0.21349464 0.095316827
-0.012336014 0.017115679 0.062119592 0.56975198 -0.80321741 -0.2324966 0.092322402
-0.0079320595 0.018262943 0.061919428 0.36651498 -0.91126239 -0.24788792 0.087714002
-0.0023286925 0.018445171 0.062222745 0.084796406 -0.96913308 -0.24317877 0.066704132
0.0025381697 0.018418595 0.062080391 -0.16163723 -0.95439386 -0.2511079 0.07364174
0.0077741109 0.017771002 0.062448196 -0.39728522 -0.87788349 -0.26898587 0.084698386
0.011990657 0.016440131 0.062108546 -0.59274805 -0.76797622 -0.24861957 0.090461418
-0.0025401043 0.018642563 0.060770333 0.081626408 -0.97608548 -0.21858896 0.06007519
0.0010094659 0.018523745 0.061805714 -0.081006765 -0.97080928 -0.22703207 0.057294771
-0.00076895137 -0.020679042 0.066593587 0.057615504 -0.95339614 0.3028467 0.073156916
0.0013584737 -0.020015117 0.066335797 0.16881736 -0.93928683 0.30202794 0.075975209
0.003881996 -0.018373823 0.067448154 0.29250321 -0.89767796 0.33374217 0.093865864
0.0067551406 -0.016858712 0.067278825 0.4132224 -0.85749394 0.33268765 0.091900758
0.0094842594 -0.014455106 0.067797601 0.55488217 -0.76099348 0.35443982 0.10261484
0.012801518 -0.011935174 0.067530535 0.72196203 -0.63040763 0.31684145 0.083842792
0.014811937 -0.010706588 0.064893126 0.81395787 -0.55192852 0.23172008 0.051543683
0.014269628 -0.0094268546 0.068647094 0.8042866 -0.49157187 0.34228969 0.085429348
0.016391706 -0.0071818801 0.066769041 0.89063549 -0.37742844 0.25847465 0.058892637
0.018031852 -0.0030859439 0.068778723 0.94335735 -0.14324468 0.30132714 0.079069078
0.019128213 0.0038928185 0.068033509 0.92516577 0.18452831 0.33252496 0.11917032
-0.01862915 0.009198294 0.066163979 0.8373881 -0.47095168 -0.2821039 0.098763175
-0.017983092 0.0104922 0.066508219 0.8186565 -0.50419575 -0.29557392 0.11850677
0.014318997 0.012240647 0.068680204 -0.80739677 -0.50719857 -0.38502079 0.13018042
0.017940361 0.0085164877 0.067073487 0.88540471 0.35968146 0.3082138 0.10490441
0.01867217 0.0074438266 0.066274405 0.89993751 0.34796226 0.26612446 0.084457479
-0.016926019 0.012477223 0.065739311 0.77806264 -0.5756045 -0.27714893 0.099628866
-0.012016707 0.015560137 0.067364439 0.62655574 -0.75539613 -0.30809227 0.11019931
-0.010497825 0.016254213 0.06641385 0.56210637 -0.81424153 -0.30903631 0.10995124
0.010129727 0.015991163 0.066089235 -0.54584026 -0.77578783 -0.32926559 0.098557524
0.014925743 0.012363107 0.067899726 0.78016073 0.544065 0.34130532 0.11263148
0.016692569 0.010769157 0.066772103 0.84423518 0.4635371 0.29630333 0.093775734
0.018057959 0.009575828 0.06443698 0.87267351 0.42197314 0.2498181 0.083732687
-0.012475753 0.015886968 0.065789342 0.58248508 -0.77672142 -0.27005664 0.089124158
-0.0081552174 0.017458219 0.065000907 0.38603875 -0.89369798 -0.26608095 0.085951269
-0.0024537269 0.016193107 0.068956964 0.073468722 -0.95403045 -0.30872375 0.067403562
0.0063282731 0.016810242 0.06671311 -0.34122124 -0.8862505 -0.31347337 0.079642169
0.0013998792 -0.018580113 0.071363017 0.15450624 -0.9193005 0.36880505 0.087530233
0.0028610192 -0.016814433 0.072445534 0.24273993 -0.89349848 0.38613957 0.093952343
0.0053427196 -0.015551627 0.072319292 0.35612518 -0.87087148 0.39318296 0.10674225
-0.011193605 -0.013041833 0.074505016 0.54435807 0.73786712 -0.43533751 0.13498025
0.0078076012 -0.012263113 0.072620019 0.55705714 -0.72402805 0.4343085 0.11483008
0.010364323 -0.011629345 0.071501136 0.66525859 -0.62912172 0.42082831 0.1082371
-0.015603035 -0.0049788975 0.073398173 0.87250131 0.28309765 -0.4027212 0.096893974
0.012556535 -0.0079652146 0.072134063 0.79019916 -0.44604245 0.42320907 0.10174307
0.014558028 -0.005579432 0.072109759 0.86292297 -0.32907164 0.38494653 0.091078386
-0.016249143 -0.002571211 0.073424317 0.90248483 0.13992313 -0.4102309 0.10242938
0.016379766 -0.002265132 0.072082885 0.92696482 -0.098512717 0.36894369 0.090163007
0.017605344 0.0025462529 0.072272442 0.92103064 0.16707456 0.36247218 0.094883405
0.017089022 0.0044769961 0.07312163 0.91882205 0.30218169 0.3353385 0.085992493
-0.016824163 0.0075268382 0.072583698 0.85443872 -0.41186267 -0.31672341 0.05863598
-0.016585089 0.0082135499 0.072473258 0.84397984 -0.43386075 -0.31778383 0.064395934
0.011898413 0.010224114 0.074163385 -0.77917176 -0.49702346 -0.471333 0.15269448
0.016678188 0.0081281643 0.071122617 0.86461961 0.3721863 0.3440156 0.1038344
0.017985117 0.0060658962 0.070476517 0.90500057 0.323726 0.29857421 0.083366901
-0.01475119 0.011229785 0.072408885 0.74426383 -0.58243436 -0.33638528 0.089926042
-0.012636453 0.013109501 0.073081046 0.66216493 -0.66888082 -0.38673946 0.094389267
0.012749394 0.012000572 0.072250433 -0.72860074 -0.57939857 -0.39073473 0.11837187
0.015357323 0.0095098242 0.071752548 0.84964931 0.42146763 0.35247934 0.10888932
-0.010605887 0.014353117 0.072521076 0.56443775 -0.76852018 -0.37771717 0.08082217
-0.0066910014 0.015474249 0.071815521 0.32911569 -0.89046037 -0.36571923 0.068525478
-0.0025966358 0.015469942 0.071742699 0.10755426 -0.93180764 -0.36179149 0.079064935
0.00047595665 0.015078604 0.069837183 -0.10101193 -0.91591406 -0.39252949 0.10380552
0.0095593408 0.012355346 0.072834983 -0.61239278 -0.71642411 -0.3839002 0.10271686
-0.00098286755 -0.017096402 0.074563764 0.0080378661 -0.94238818 0.36677954 0.082397446
-7.5889926e-05 -0.017024038 0.074110486 0.069176733 -0.93866551 0.36682531 0.085268892
-0.010268594 -0.013755108 0.077170633 -0.52010208 -0.74453974 0.44502252 0.13658249
-0.0021403022 -0.014959489 0.077129468 -0.087785125 -0.93509692 0.41390046 0.12023867
0.0010889065 -0.014386461 0.075873092 0.15114357 -0.91953593 0.41588637 0.12883426
0.0034444218 -0.013903061 0.074273281 0.33193585 -0.8856073 0.39917943 0.1110462
-0.010314634 -0.010320833 0.076786675 0.62903434 0.66481608 -0.43807414 0.14800614
0.001992295 -0.011682578 0.07649076 0.40898949 -0.82148224 0.45906073 0.14584708
0.0048913113 -0.0104044 0.075787574 0.56437016 -0.68323392 0.48773703 0.14117099
0.0089117102 -0.0088470299 0.074760899 0.71420431 -0.54354858 0.45174623 0.10835876
-0.013894516 -0.0054742428 0.0747675 0.84800225 0.32682592 -0.42923787 0.10922614
-0.0095597692 -0.0059320708 0.07637088 0.77316636 0.45780793 -0.46168843 0.15577042
0.0060107289 -0.007676573 0.076692469 0.7000587 -0.52749962 0.49318746 0.13896908
0.0091300569 -0.0062647453 0.076107286 0.77244711 -0.44724283 0.45591086 0.11622528
0.011849781 -0.0038380479 0.075809084 0.85940611 -0.31253436 0.41330674 0.098241366
-0.013613895 -0.0019456749 0.0754655 0.88292861 0.14849786 -0.45606568 0.12549235
-0.010171142 -0.0012583355 0.077157788 0.86460745 0.15631786 -0.49110195 0.16694078
0.009536 0.00067189115 0.077943653 0.91079122 -0.04699197 0.46328011 0.14723967
0.012900751 -0.0011772423 0.076345801 0.91199815 -0.089001685 0.42791423 0.10474136
-0.013836013 0.0010433656 0.075633012 0.87423116 -0.066438012 -0.4935165 0.12752897
-0.010108061 0.0016166475 0.076646283 0.8268621 -0.18006819 -0.53791189 0.17350075
0.011758236 0.0038432186 0.078259178 0.85648662 0.31936496 0.43114462 0.154147
0.014263383 0.0017046178 0.076556332 0.91846001 0.16445175 0.41824016 0.1098911
-0.015549283 0.0067341523 0.075634092 0.84477687 -0.4012785 -0.35546613 0.054139484
-0.01408593 0.006976251 0.076927841 0.80318087 -0.45684242 -0.38902026 0.075834632
-0.010124683 0.0053154971 0.07727626 0.68987083 -0.48140609 -0.55312169 0.15932171
-0.007788395 0.0060410523 0.077944726 0.52206326 -0.70441127 -0.56061858 0.17596652
0.01159974 0.0068785995 0.077647246 0.81362855 0.42306361 0.4259173 0.14791588
0.014201915 0.0061176731 0.076406412 0.86065769 0.33369765 0.39517084 0.12224869
0.015874127 0.0066823219 0.073916242 0.865435 0.35989344 0.3525216 0.10100933
-0.014762266 0.0093652112 0.075221241 0.77300042 -0.5137496 -0.38953245 0.087065034
-0.01137631 0.010672869 0.076695494 0.68503332 -0.62336653 -0.46879035 0.11449301
-0.0075507672 0.01098389 0.077129699 0.45788622 -0.77166331 -0.5104872 0.12614638
-0.0023459536 0.010056513 0.076384507 0.034806412 -0.90856957 -0.45621249 0.14419062
0.011145326 0.0094823949 0.076073669 -0.78940755 -0.53110188 -0.40716624 0.12671715
0.013577004 0.0088837799 0.074895628 0.83870298 0.43356004 0.39054805 0.11670418
-0.0066308808 0.013299316 0.075369075 0.36865327 -0.84907478 -0.42994329 0.089996837
-0.0032784841 0.012003573 0.07596983 0.11126906 -0.92054027 -0.4192611 0.10596873
-0.0080153225 -0.012427451 0.080857024 -0.47308782 -0.79637444 0.432872 0.1398859
-0.0066533866 -0.012369316 0.082658589 -0.46343052 -0.81013793 0.453217 0.16760905
-0.0040332233 -0.011426587 0.080686547 -0.1094597 -0.97660303 0.39325842 0.14734662
-0.00096169516 -0.010593483 0.080181204 0.25875121 -0.90036023 0.416987 0.14597282
-0.0079407273 -0.0093322294 0.080827817 0.58283603 0.70728832 -0.45514539 0.17329249
-0.0043155844 -0.0084057208 0.08331354 -0.49447462 -0.82986152 0.41687888 0.19593827
-0.0012621372 -0.0089212535 0.080607899 0.50614172 -0.77717274 0.41427493 0.16390331
0.0012511138 -0.0078979917 0.079498447 0.63763088 -0.63072151 0.46297583 0.16163889
-0.0043688603 -0.0039200764 0.080131836 0.82287216 0.440813 -0.38485545 0.20603573
0.0023736844 -0.0050048521 0.080502778 0.72555894 -0.54115212 0.43560013 0.1680291
0.0062120236 -0.0039487993 0.078824371 0.78461152 -0.42711559 0.45757014 0.14112735
0.0093979612 -0.0024930951 0.078912139 0.85766578 -0.31329444 0.42487636 0.11664375
-0.0058948128 0.00021666422 0.079777718 0.88229829 0.26462883 -0.43190864 0.19773467
-0.0017222501 0.0010229748 0.080893345 0.92971253 0.18353584 -0.33565155 0.22616826
0.0067168665 0.00038238181 0.079903148 0.87878674 -0.24867916 0.43596715 0.15404642
0.010673981 -0.0013277952 0.078817591 0.90770745 -0.13722657 0.41921243 0.11096448
-0.0034178235 0.0022517091 0.077938393 0.88527536 -0.13593076 -0.46938467 0.22846133
-0.0041708341 -0.0014088504 0.080945343 0.73248476 -0.55016565 -0.44143742 0.23936458
0.0076478617 0.0032841992 0.080012955 0.93499571 0.12370574 0.43970793 0.16299783
0.010858859 0.0032499866 0.079099722 0.89699137 0.2878961 0.4311167 0.13903889
-0.011354989 0.0043030246 0.078372166 0.80853474 -0.34726399 -0.48132733 0.12795344
-0.0090654958 0.0054148296 0.079152226 0.69268018 -0.51211566 -0.51313931 0.15480623
-0.0060021514 0.0023525038 0.080178007 0.4284673 -0.80393606 -0.50626296 0.20449713
0.0091178017 0.0055469326 0.081358224 0.8023566 0.46584952 0.39982453 0.16248173
-0.0077591361 0.0071588773 0.080554187 0.57238942 -0.65878558 -0.50414073 0.1425498
-0.0054536769 0.0068758884 0.080046691 0.39744145 -0.78760374 -0.51921105 0.16009434
-0.0030121149 0.0062998137 0.080519989 0.090800412 -0.91733229 -0.43589011 0.16590169
-0.0033526034 0.0086173341 0.080802634 0.12402177 -0.93939573 -0.38906902 0.12758349
-0.00021173632 0.0083146868 0.080386557 -0.11582514 -0.93495834 -0.35686478 0.12698676
-0.0054900935 -0.011296455 0.085597053 -0.40600994 -0.84372979 0.44127333 0.16938482
-0.0059518316 -0.0084365001 0.083441928 0.13629663 -0.96721315 0.33861113 0.18603817
-0.0042710979 -0.0086749904 0.082839414 0.37575823 -0.87897867 0.35092089 0.17298424
-0.0022934619 -0.0066263471 0.086862981 0.7901054 0.59437919 -0.26814446 0.18390261
-0.0097690094 -0.0091789449 0.087131709 0.54633373 -0.82442319 0.17875528 0.22110082
-0.0071428553 -0.010060614 0.086488292 0.71147281 -0.64891034 0.28512937 0.20237938
-0.0030345009 -0.0071702669 0.084453538 0.65485865 -0.67265737 0.36137795 0.18158931
-0.0028330376 -0.004174972 0.085777864 0.88417321 0.36478451 -0.32921755 0.19820146
-0.0015164746 -0.0040991688 0.086755604 0.77629036 -0.55395567 0.3134068 0.18479693
0.00045424106 -0.0028229742 0.084712207 0.7566312 -0.55790406 0.35247561 0.17807981
0.0034883516 -0.0011951544 0.083630309 0.79669684 -0.48280311 0.37526882 0.15586458
-0.00055771088 -0.0023579448 0.086520441 0.96880549 0.049044929 -0.26188704 0.21513173
-0.00017448352 -0.00074785808 0.088250488 0.86817098 -0.4303565 0.25715178 0.19940978
0.0015140459 0.00085272803 0.086079083 0.84823942 -0.43802726 0.30878329 0.1891855
0.003886146 0.0020996723 0.084584698 0.86698568 -0.38811567 0.338404 0.16484371
0.0029091514 0.004571659 0.087013111 0.92743713 -0.30899161 0.26031572 0.18647674
0.0046213008 0.0061880816 0.085177802 0.97646463 -0.12205038 0.32725212 0.17424014
-0.0045096343 0.0048975926 0.082191765 0.64222658 -0.63727158 -0.46099424 0.1742657
0.00080422859 0.0023082029 0.085713744 0.63341433 -0.73161966 -0.34022996 0.22615613
0.0024162733 0.002170762 0.087304391 0.4410392 -0.88142842 -0.24812214 0.21754754
0.0044752513 0.010504426 0.087348364 0.97047848 -0.23324825 0.21867929 0.19743907
0.0042982856 0.0065822238 0.084548809 0.87248319 0.57437009 0.35682407 0.18378991
-0.00072173646 0.0043934863 0.083825186 0.45076892 -0.82253134 -0.41550148 0.20439079
-0.0010084442 0.0030389228 0.085043497 0.20251343 -0.91973835 -0.37001821 0.19020787
0.0062748957 0.0057501504 0.085726365 0.74311382 0.58953446 0.34752098 0.1545926
0.0001963356 -0.0089307185 0.09064272 0.54286849 0.94788176 -0.2331669 0.18106449
-0.00018238893 -0.0080881538 0.090578049 0.90140849 0.40933767 -0.18149197 0.19353592
-0.0041187759 -0.014507594 0.091163278 0.95388919 -0.51677358 0.2322278 0.21586417
-0.0072938101 -0.008551646 0.090762913 0.7371279 -0.65144986 0.18079616 0.19744608
-0.0048674904 -0.0068623768 0.090424545 0.76268238 -0.61854166 0.20991869 0.192123
-0.00056155038 -0.0052926806 0.091404162 0.96632642 0.19605261 -0.19355112 0.19341284
-0.0028134426 -0.0039735734 0.091942452 0.79084969 -0.58567625 0.1873209 0.18368223
-0.0011512327 -0.0025227452 0.091919005 0.82286656 -0.53175873 0.21166947 0.17342979
0.00028631138 -0.0026290771 0.091580972 0.98694342 0.0089208251 -0.19632769 0.19998921
0.00097454083 -0.0032779824 0.093135945 0.99169606 -0.15898763 -0.015823307 0.20395796
0.001131952 0.0019275801 0.092647895 0.85055697 -0.49255756 0.19663641 0.17611484
0.0031195446 0.0056993687 0.091400295 0.90964848 -0.38559216 0.19351153 0.18690614
0.0036795014 0.0070792316 0.091433033 0.94162512 -0.3090288 0.21621022 0.18031114
0.0019637216 0.0036862302 0.088746831 0.71850193 -0.66659051 -0.31207073 0.20984721
0.0051693264 0.0097324848 0.094027169 0.89401054 -0.43688023 0.12419067 0.18597996
0.0025565743 0.0095134554 0.090728424 1.0552115 0.19338964 0.23888937 0.18901291
0.0011895776 0.0036318651 0.089629047 0.44138089 -0.86937392 -0.29788512 0.19658504
0.0010720826 0.0029655367 0.091781102 0.29539284 -0.91788495 -0.28175166 0.19058973
0.0031311582 0.0016961404 0.091219306 0.17747949 -0.96690333 -0.20722266 0.20672032
-0.00031269048 0.0038570557 0.09043593 0.23689014 -0.93243587 -0.30007088 0.17150038
-0.0082541164 -0.010186954 0.095539957 0.73907793 -0.67575812 0.052997217 0.18486942
-0.0010908955 -0.011296444 0.09669321 0.99588853 -0.075212248 -0.071406156 0.18439092
-0.0035934413 -0.012541192 0.098831147 0.94257438 -0.35101351 -0.011370036 0.18051736
-0.0053093829 -0.010174972 0.098018818 0.8725968 -0.49492258 0.035604343 0.18272784
-0.00082706846 -0.0085687069 0.096285723 0.98702395 -0.11286885 -0.1176701 0.17929807
-0.0024043908 -0.01132831 0.099210151 0.96744049 -0.25121289 -0.054777607 0.17104751
-0.0030305772 -0.0074169855 0.099142604 0.89205986 -0.46203154 0.0381134 0.17114389
-0.0017301627 -0.0047849598 0.098752089 0.90083015 -0.43814257 0.05342048 0.17129083
-0.00053528114 -0.005299069 0.095651604 0.97551268 -0.14427441 -0.16921692 0.17568877
-0.0011415347 -0.0056519471 0.098137893 0.95157605 -0.27652487 -0.13478088 0.16748795
-0.0015169333 -0.0041558691 0.099709563 0.899517 -0.43829924 0.024791706 0.17030956
-0.00080736785 -0.0025633706 0.099278621 0.90649897 -0.42179015 0.045293059 0.16768581
0.0014452223 0.0024510894 0.099078387 0.88713753 -0.44429258 0.13596524 0.16419183
0.0016587236 0.0023283071 0.097564749 0.89076746 -0.45350718 -0.036869977 0.18888187
0.00096922019 0.0015858528 0.098150589 0.87618059 -0.48195621 0.013021139 0.18115523
0.0019315312 0.0035301223 0.099205226 0.90374583 -0.41485381 0.12680326 0.16714813
0.0029956645 0.0079146614 0.095142908 1.008271 -0.069062769 0.21449839 0.18426873
0.0032397131 0.004563408 0.0985815 0.80925071 -0.59586161 -0.040543742 0.18813916
0.0052509569 0.0097011244 0.098079585 0.83979595 -0.53258491 0.11068401 0.18718025
0.0023900352 0.0090808766 0.095388912 1.0526559 0.12104352 0.16153301 0.18768828
0.003784714 0.0032976349 0.094894238 0.41700438 -0.91718835 -0.13576767 0.20440564
0.0058651259 0.0029347411 0.095896244 0.25002578 -0.97465605 -0.081452861 0.19918421
0.0096838586 0.006732563 0.096827403 0.3773734 -0.96595472 0.053848699 0.19966422
0.0026837154 0.0060834545 0.093035869 0.76270497 0.65375531 0.24975026 0.17796169
-0.0041181459 -0.012976341 0.10196946 0.93229359 -0.37903908 -0.021978395 0.16553026
-0.0050449818 -0.010550775 0.10230529 0.85942364 -0.53279197 0.018469859 0.16112314
-0.0047407215 -0.0082700085 0.10295299 0.79151386 -0.63031656 0.07315287 0.14795801
-0.0046680579 -0.0076415762 0.10266396 0.78331184 -0.63419795 0.074746445 0.15082963
-0.002301835 -0.0090616047 0.10165476 0.95319563 -0.28521299 -0.10224666 0.16647941
-0.0031679824 -0.0098454701 0.10309735 0.93081385 -0.36197135 -0.050991815 0.16026367
-0.0033253895 -0.0079705287 0.1027624 0.88652557 -0.46964663 -0.0075149438 0.16407141
-0.0035749329 -0.0070322338 0.10396539 0.84155971 -0.54992366 0.032355584 0.15302359
-0.0022569934 -0.0079704979 0.10334015 0.93718195 -0.34369263 -0.069583349 0.16192438
-0.0015805962 -0.006480583 0.1008921 0.94700956 -0.30067754 -0.11412956 0.16676161
-0.0014502793 -0.0035156207 0.10061905 0.88024986 -0.47469375 0.0078108236 0.16758163
-0.00059654459 -0.0015461044 0.10112475 0.88437521 -0.4622747 0.06790863 0.16646828
0.00086973514 0.00091340422 0.1020949 0.89084864 -0.44324961 0.10422009 0.16270763
0.0021134964 0.0039911405 0.10386546 0.91477346 -0.40123114 0.09273044 0.16036947
0.0017944167 0.0027076337 0.10154071 0.90039164 -0.43316013 -0.043620273 0.17173411
0.0029433006 0.0065053613 0.10298488 0.94326109 -0.33249295 0.09842556 0.16993085
0.0027962099 0.0066474648 0.10261139 0.95429718 -0.30595714 0.10065663 0.17104375
0.0033016976 0.0058016111 0.1025022 0.90846854 -0.41802117 -0.016139535 0.17845485
0.0046414938 0.0076122982 0.10353744 0.84160537 -0.54357272 -0.010242513 0.17981559
0.0040649502 0.0094453441 0.10251454 0.93366367 -0.35645786 0.080662891 0.17806822
0.0020165101 0.0093694367 0.10179549 1.0350636 0.10901456 0.11531124 0.18073936
0.0041001234 0.0066541601 0.10429301 0.86124903 -0.51230073 -0.065794975 0.17593428
0.0056033456 0.0062543848 0.10150987 0.56120753 -0.86722666 -0.056682929 0.18608959
0.0069703516 0.0071375351 0.10240421 0.55867726 -0.86109656 -0.042082224 0.18905908
0.0049606701 0.01122442 0.10270967 0.92733526 -0.37270081 0.042438257 0.18696804
0.00043201831 0.0080924407 0.099284567 0.89366657 0.57742584 0.16806874 0.18241048
-0.010033433 -0.015929915 0.10788313 0.72913122 -0.78173941 -0.022444475 0.16794066
-0.0060443063 -0.013391959 0.10693532 0.83552623 -0.59847927 -0.012046799 0.15530553
-0.0047229272 -0.0093330648 0.10753834 0.82757157 -0.57603264 0.014652545 0.15073131
-0.0041446853 -0.0074631674 0.10787367 0.8071993 -0.60600501 0.020283164 0.14981942
-0.0038069678 -0.006867025 0.10663697 0.8154676 -0.59558046 0.044366289 0.15833265
-0.002151092 -0.0089771897 0.10545998 0.94076198 -0.33823264 -0.026279766 0.16180338
-0.0036977346 -0.0095842797 0.10732692 0.89227939 -0.45229459 0.016102618 0.15525758
-0.0034711193 -0.0086154798 0.10637648 0.88023543 -0.48284444 0.020802263 0.15386748
-0.0026093577 -0.0054355958 0.10673469 0.85227889 -0.52729273 0.029553505 0.15336907
-0.00072095334 -0.0015174397 0.10798445 0.87858462 -0.47691309 0.036760289 0.15288395
-0.0021740547 -0.0074565075 0.10734557 0.94789457 -0.32730451 -0.025549185 0.16019708
-0.0018466674 -0.0060105585 0.1083122 0.92267472 -0.38812542 0.00045234343 0.15671125
0.00073475658 0.0015036348 0.10742939 0.89233822 -0.45036545 0.054223336 0.15740043
0.0015255369 0.003397001 0.10703079 0.93793464 -0.34818992 0.066782892 0.16470645
0.00059449906 -0.00044214423 0.10856654 0.92039913 -0.39088762 0.013990982 0.16010407
0.0015026188 0.0019760455 0.10828255 0.90456694 -0.42674375 -0.0079199169 0.16321155
0.0022395509 0.0054985592 0.10699396 0.94721979 -0.32484505 0.072740868 0.16197939
0.0025434482 0.0059828819 0.10640761 0.94358993 -0.3274624 0.11085307 0.16145077
0.0016389547 0.002455283 0.1082763 0.87720942 -0.48147982 0.01941796 0.16678798
0.0023591281 0.0032941927 0.10860471 0.8446036 -0.53907067 -0.0018091288 0.17050046
0.0029417353 0.0054194555 0.10739125 0.89728332 -0.44305936 -0.020869428 0.16625534
0.0035572632 0.0075312275 0.10780706 0.91891789 -0.39436737 0.016001804 0.16822013
0.003858706 0.0091109145 0.1074766 0.93094707 -0.36498997 0.04219022 0.16669062
0.0025504024 0.010217502 0.10549461 1.0268197 -0.023586668 0.09606719 0.1713217
0.0016623549 0.0029207934 0.10584661 0.81592256 -0.58332396 -0.026122974 0.1692929
0.0033516369 0.005772043 0.10569735 0.8376236 -0.56001508 -0.057513785 0.16798772
0.005902492 0.0085107926 0.10725834 0.77281708 -0.66418111 -0.036726918 0.18364133
0.0046835709 0.010886775 0.10700067 0.92644554 -0.37993652 -0.01119299 0.18225865
0.0050799837 0.011439815 0.10645524 0.90696013 -0.42140296 0.029600391 0.18235868
0.0016998155 0.012780847 0.10713539 1.0335296 0.099611677 0.084737882 0.17899923
-0.0075707575 -0.017234294 0.11239417 0.83649689 -0.75076467 -0.07609234 0.17462188
-0.0056372648 -0.012859617 0.1119778 0.86131722 -0.52961653 0.0074963449 0.16696066
-0.0054494864 -0.0090521267 0.11201914 0.81058741 -0.58880776 0.039737385 0.15960391
-0.0046237893 -0.0070866225 0.11254704 0.77985376 -0.6335631 0.0081771826 0.15243632
-0.0033517801 -0.0053341705 0.11269914 0.79182702 -0.61844772 -0.017275952 0.15260115
-0.0030512942 -0.0088368719 0.11369447 0.92040974 -0.39076889 0.039582573 0.15608703
-0.0034398427 -0.0093602519 0.11316903 0.89834487 -0.44202992 0.03454721 0.15633982
-0.0043532909 -0.0090545639 0.11231666 0.85833561 -0.51745176 0.028316643 0.15639372
-0.0026440509 -0.0043395096 0.11329539 0.8278079 -0.56236833 0.017236605 0.15410189
-0.001703962 -0.0034882016 0.11146988 0.86536211 -0.50310051 -0.016725343 0.15075654
-0.0020520699 -0.0069069532 0.11207528 0.93018746 -0.36738682 0.023597661 0.15451205
-0.0018011632 -0.0060617072 0.11370347 0.91823381 -0.39558935 0.03454522 0.158867
0.00036006363 0.00093134615 0.11288593 0.91663492 -0.40109181 0.00061141892 0.1619556
0.0010871449 0.0033711856 0.11218763 0.94816679 -0.32449356 0.0040834127 0.16722034
-0.0004096629 -0.0016037979 0.1133104 0.90385902 -0.42702571 0.030610448 0.15390095
0.0010158166 0.0015373661 0.11265482 0.86845291 -0.49520242 0.026572021 0.16068216
0.0014008022 0.0048835026 0.11227299 0.96712607 -0.26042527 0.034293149 0.1682183
0.0015803863 0.0054750144 0.11307945 0.97033501 -0.25774208 0.011428153 0.1670045
0.0019079237 0.0025833321 0.11067459 0.91421312 -0.40379977 0.04695639 0.17048116
0.0024235018 0.0039212764 0.11466237 0.84938782 -0.53135478 0.074998222 0.17245008
0.0030582179 0.004787893 0.1120702 0.83571833 -0.55227488 0.030153716 0.17124851
0.0039256811 0.0074723042 0.11304515 0.86628914 -0.50146812 0.050357439 0.17078395
0.0021621073 0.0088182231 0.11283755 0.9787423 -0.2141515 0.061703149 0.17137039
0.0011176271 0.0088293999 0.11323242 1.0134029 -0.0075464286 0.065058857 0.17151709
0.0038811602 0.0055622496 0.11449606 0.79463774 -0.61965799 0.06039121 0.17376786
0.0051004253 0.0073411614 0.11395297 0.78261065 -0.64548552 0.035052013 0.17335387
0.0063811764 0.0093769561 0.11289901 0.76330155 -0.6815784 0.011739306 0.18309131
0.00017162017 0.011444413 0.11203577 1.008459 0.1766244 0.12763871 0.17979434
0.0079098176 0.008034843 0.11278156 0.6042375 -0.84611762 -0.025682429 0.18404455
0.0084466347 0.0086280368 0.11251973 0.59472036 -0.85876685 -0.027283451 0.18319277
2.2947555e-05 -0.0038037207 0.11757273 -0.36138159 -0.93663222 -0.061542004 0.18841253
-0.0050718868 -0.012980569 0.11696479 0.88206691 -0.50458592 -0.030418988 0.17579292
-0.0054914057 -0.0092678415 0.11739143 0.85616684 -0.51719111 -0.0011727362 0.16991305
-0.0049716467 -0.0073896917 0.11845313 0.83759403 -0.54663044 -0.020710977 0.17094037
-0.0027541709 -0.0049138153 0.11870032 0.80857283 -0.58667332 -0.069397569 0.15647458
-0.00097291905 -0.0032670752 0.11837866 0.80585128 -0.587717 -0.07827802 0.1534192
-0.0038074318 -0.0087632723 0.11738743 0.89787573 -0.4411549 -0.0068064108 0.16905832
-0.0044050906 -0.0084874723 0.11754079 0.87421584 -0.48635688 -0.0038009819 0.16773732
-0.0028656332 -0.004553535 0.11782946 0.85852253 -0.512909 -0.010305116 0.1607687
-0.00081987039 -0.0010235959 0.11623224 0.84823668 -0.52976769 0.015431007 0.16126414
0.00024007307 -0.0016948585 0.12007963 0.84819531 -0.52156526 -0.093280159 0.14963129
-0.0010106565 -0.0051147384 0.11806244 0.95538938 -0.29108882 0.055925511 0.16718601
-0.0016274513 -0.0055741002 0.11804417 0.93758714 -0.34638399 0.038021792 0.16515331
-0.0010931238 -0.0011407619 0.11878385 0.86148548 -0.50830656 -0.0040244232 0.16156481
0.00042677828 0.001272623 0.11727834 0.8810792 -0.4729695 0.021092227 0.1628968
-0.0012764503 -0.00064759032 0.12184691 0.95102882 -0.27114341 0.14856462 0.15798929
-0.00033091684 -0.0010697807 0.12102746 0.95144629 -0.27294421 0.14257637 0.16673705
0.00036472525 -0.00081969472 0.11840275 0.95807719 -0.28000742 0.061796546 0.16831702
0.0011902892 0.0022543371 0.11765145 0.92694885 -0.36975616 0.064454451 0.16641276
0.0019549106 0.006195012 0.11747896 0.9299556 -0.36858737 0.019529639 0.1752528
0.0010596069 0.0056441631 0.11777358 0.98801672 -0.18180497 0.012254384 0.16819009
0.00073368754 0.0021690361 0.11948045 0.91354573 -0.38920668 0.13336484 0.16745135
0.002064514 0.0047041462 0.12011378 0.88036811 -0.47453254 0.11999042 0.16560635
0.0031594923 0.0064899018 0.11916067 0.86278248 -0.51770377 0.07767538 0.16622245
0.0031454493 0.0085067693 0.11776014 0.91948998 -0.39545846 0.059300426 0.17673522
0.0024241586 0.0087912204 0.11749505 0.94173074 -0.33533064 0.049262024 0.18058227
0.0032260166 0.006914373 0.11776868 0.88678885 -0.47545275 0.09515243 0.17200461
0.0044093938 0.0078001046 0.11755577 0.82775939 -0.58933067 0.063899532 0.17226996
0.0058029206 0.010219852 0.11648972 0.80924594 -0.63982517 0.027211847 0.18311201
-0.0021567296 0.003926402 0.11727646 0.75690651 0.66239887 0.083129741 0.18540017
-0.0019820896 0.0087978421 0.11512881 0.92558652 0.49902984 0.12549837 0.18022339
0.0023911437 -0.0054501132 0.12316436 -0.47625223 -0.90315241 -0.08054699 0.18913259
-0.0055003515 -0.0031506366 0.12384598 -0.12611903 -1.0104117 -0.08313176 0.17815465
-0.002248772 -0.013392286 0.12289588 0.96754956 -0.46073452 -0.031764474 0.18514398
-0.0047311042 -0.010547898 0.12252812 0.89325571 -0.45428261 -0.020245777 0.17292573
-0.0042842738 -0.0068423557 0.12285918 0.85307401 -0.52180862 -0.018160619 0.16572775
-0.0026136988 -0.0041211909 0.12216474 0.83085352 -0.55352896 -0.060727865 0.16298607
-0.00065423659 -0.0024073082 0.12185971 0.80807263 -0.58242971 -0.088482864 0.15102512
0.00023475266 -0.0059195054 0.12330716 0.99272257 -0.13642982 0.067344785 0.17257722
-7.1583549e-05 -0.0074592144 0.12346525 0.99197674 -0.20801359 0.034171958 0.17084581
-0.0030124476 -0.0088611301 0.12169144 0.92226809 -0.39734223 -0.0036176415 0.16773392
-0.0028041184 -0.0045221886 0.12291573 0.8754828 -0.48301619 -0.021607213 0.1611748
-0.0020913454 -0.0027381368 0.12382004 0.84947962 -0.52519321 -0.05273271 0.16444929
0.00031121977 -0.00098763662 0.12342757 0.84908223 -0.52357495 -0.075965904 0.15269995
-0.00042324199 -0.0041815224 0.12345871 0.97846115 -0.18278076 0.10036221 0.16744871
-0.00023535488 -0.0039276308 0.1230011 0.97580683 -0.21750589 0.048101209 0.1719619
-0.0012330714 -0.0011678513 0.12091135 0.86236453 -0.50635886 -0.020188682 0.16187358
3.7598715e-05 0.0010156028 0.12240513 0.9085713 -0.41827181 0.0016131048 0.16571862
0.0002639977 0.00021949093 0.12323932 0.96871692 -0.23918732 0.067078479 0.16983117
0.00069672364 0.002390468 0.12323648 0.95501125 -0.28758159 0.072471559 0.17253353
0.001408455 0.0060214614 0.12236553 0.94625765 -0.32495514 0.02088289 0.17762938
0.00028804142 0.0051660123 0.12289064 0.98967052 -0.16124693 0.0077634258 0.17731889
-0.00010384398 0.0024829563 0.12460566 0.92064422 -0.36111766 0.16224808 0.1622484
0.00126073 0.0037787734 0.12383115 0.87443638 -0.47926152 0.12975655 0.1674832
0.0022299751 0.0065551875 0.12272984 0.92435229 -0.3757939 0.087622769 0.17651077
0.00042038335 0.0081412746 0.12210222 0.99918419 -0.03537764 0.10365324 0.17902179
0.0016883779 0.0076924381 0.12188992 0.94664228 -0.32038459 0.045518603 0.1783399
-0.00035363762 0.00015071902 0.12318324 0.86578447 0.49965027 0.029921006 0.17688885
0.0018414827 -0.0085106147 0.1288401 0.98801023 0.17393874 0.063399397 0.17040214
-0.0033730394 -0.011069946 0.12705909 0.93447661 -0.38890874 -0.0255481 0.16602468
-0.0034586596 -0.010220384 0.12808457 0.92851925 -0.41112933 -0.051988628 0.16591041
-0.0032288912 -0.0051326831 0.12790428 0.85887921 -0.50834346 -0.079710603 0.1602352
0.00063162437 -0.0046702898 0.12969814 0.99738508 0.044292226 0.080486126 0.16987056
-4.1127671e-05 -0.0074937139 0.12804449 0.99483514 -0.15005502 0.060123846 0.16169028
0.00030007958 -0.0090611428 0.1282225 1.0182431 -0.1509608 -0.0040859999 0.16761197
-0.0013339868 -0.006724929 0.12748264 0.97370094 -0.26023105 -0.024190614 0.15541634
-0.0021065348 -0.0034284736 0.12882489 0.87575912 -0.47818848 -0.074878648 0.16272154
0.00029011036 -0.0018077634 0.1289095 0.86273366 -0.49845576 -0.088522635 0.14877371
7.1259798e-05 -0.0026917444 0.12859507 0.99278468 -0.099535428 0.069555506 0.16734222
-0.00074809522 -0.0032278055 0.1273035 0.97950834 -0.20403226 -0.021148423 0.1579348
-0.00048299012 0.00030717047 0.12742026 0.95123875 -0.3095659 -0.015771477 0.16023749
-0.0019818253 0.0023557113 0.13120043 0.96646613 -0.24115968 0.12337981 0.15816601
0.00018273538 0.0012259932 0.12847024 0.99608368 -0.058615625 0.07570406 0.16363859
0.00040346879 0.0027527027 0.12749921 0.98807222 -0.13711484 0.078981295 0.16355
-0.00026306417 0.0047052726 0.1275879 1.0033984 -0.067540921 0.00050273963 0.17223829
-0.00014459784 0.0047630472 0.12856074 1.0060831 -0.061038755 -0.0309981 0.1746511
-0.0015996549 0.0034810323 0.13034047 0.92491394 -0.38135439 0.14801981 0.15544361
0.00015637744 0.004481724 0.12905368 0.91972411 -0.40496644 0.12050708 0.16848153
-2.2441149e-05 0.0082045086 0.12829418 0.99194038 -0.065181568 0.10955071 0.16959381
-0.0023757808 0.0082493322 0.12758926 0.95585769 0.3333717 0.10304097 0.16657776
-0.0025677122 0.0071926778 0.12725642 0.95571959 0.36170208 0.056348529 0.16919826
-0.0016852949 0.0043914015 0.12721898 0.95058507 0.37259787 0.024089033 0.17268445
-0.0001055015 -0.0011316972 0.12862049 0.79106599 0.61147684 -0.019550877 0.16724156
-0.0050102072 0.0099500054 0.12857592 0.88415527 0.52360153 0.081453435 0.17284773
0.00090927538 -0.0065361536 0.13424838 0.6708892 0.75807524 0.08988791 0.16841948
0.001012554 -0.0063447235 0.13530424 0.62576038 0.80050308 0.068214551 0.17512386
0.0050163516 -0.0066731661 0.13404769 -0.57086378 -0.83716857 -0.03517995 0.20461455
0.00147445 -0.0061211959 0.13339193 0.85803819 0.50988644 0.070437446 0.18116564
0.0041971728 -0.0072683599 0.13353135 0.75512135 0.65595043 0.0301158 0.1965307
0.0035628807 -0.0099445488 0.13248193 0.93277866 0.37540978 0.017684743 0.19858754
-0.0034048716 -0.0058447109 0.13250941 0.8734526 -0.48719192 -0.055257332 0.18571253
-7.0557347e-05 -0.0037492511 0.134443 0.85010332 -0.52463257 -0.061864056 0.16176012
0.00071199564 -0.0028702915 0.13322122 0.93532264 0.35431156 0.029954091 0.18614969
0.0010101961 -0.0034741641 0.13305034 0.94106758 0.33977887 0.04060239 0.18472759
0.0020753657 -0.0054304949 0.1327444 0.85984832 0.51100898 0.017594945 0.18774498
-0.00017005199 -0.0082694301 0.13211137 1.0148419 -0.11234777 -0.0017113155 0.1918759
-0.001088938 -0.0047297366 0.13213517 0.99078488 -0.15291968 -0.02002372 0.18105863
0.00053362385 -0.0027214957 0.13367347 0.86256272 -0.50099534 -0.071461864 0.15683952
-0.00065125199 -0.0017804838 0.1339725 0.9927057 0.078955397 0.092255227 0.1744727
0.00040793652 -0.0012664418 0.13320468 0.97421056 0.21724215 0.061149232 0.18376634
0.00023810042 -0.0011422805 0.13339573 0.98931092 0.14005154 0.040685106 0.18235388
-0.00019646389 -0.0033812742 0.13273422 1.0000315 0.068598941 -0.0070755328 0.18310113
-0.0019234325 0.0014366114 0.13518994 0.99217027 -0.092772901 0.08865919 0.16513059
-0.0013901291 0.002084278 0.1356419 0.97709566 -0.20248228 0.081786096 0.17452401
-0.00061006949 0.0025876302 0.13354708 0.98599237 0.17824535 0.049033675 0.17757384
-0.00066823186 0.0043990216 0.13152394 0.99088693 0.15706658 0.063941963 0.17702889
-0.00067156495 -0.0010181181 0.13193977 0.91409141 0.40579069 0.0042071976 0.18284467
-0.00076804182 0.00022277192 0.13298452 0.97790843 0.21272457 -0.025268551 0.18479384
-0.0013851601 0.0038728251 0.13336621 0.96664315 -0.25736871 0.10534846 0.16337945
-0.00030060858 0.0048887003 0.13295881 0.95938337 -0.28240767 0.088668741 0.17017531
-0.0021850606 0.008514313 0.13262038 0.97020692 0.2987563 0.050513614 0.19182183
-0.0033280167 0.0082399789 0.13221915 0.92758727 0.45156291 0.045309901 0.18813834
-0.0047420729 0.0025514748 0.13189167 0.70372987 0.71483302 0.0036490448 0.17777395
-0.0018227182 -0.00055395148 0.13267085 0.75075269 0.6609599 -0.0076942495 0.18391646
-7.9200254e-05 -0.0019248854 0.13149574 0.78161317 0.62373149 -0.012827438 0.1777878
-0.0037366396 0.011169278 0.13376229 0.95024627 0.40784061 0.023885338 0.20348378
-0.0082129566 0.0056491275 0.13350007 0.67427158 0.74586487 -0.019061526 0.19356801
-0.0056152749 0.0023016077 0.13388979 -0.61733145 -0.78818452 0.024105847 0.18405506
-0.0015028291 0.00028924563 0.13421118 -0.63058794 -0.77669555 0.033282384 0.17037262
0.00055812392 -0.00066833524 0.13322335 -0.65541369 -0.75434887 0.045298748 0.16672811
0.00055606046 -0.0058222087 0.13710447 0.65610582 0.76708412 0.066151798 0.18894427
0.0027790528 -0.0064151697 0.13736424 0.60292619 0.81601697 0.061826117 0.20427182
0.00034201832 -0.004064681 0.13620728 0.75380766 0.65971994 0.032348115 0.19745557
0.0014156839 -0.004615718 0.13804565 0.71058905 0.70727104 0.027504997 0.21357432
0.0034351167 -0.0070248721 0.13710298 0.79230559 0.61060977 0.0077113961 0.21875429
0.003463831 -0.010112834 0.13758262 0.92434376 0.39530325 -0.00089258043 0.22419384
-0.002944872 -0.0053598043 0.13663433 0.86084515 -0.51110482 -0.047494411 0.20578547
-0.00016255735 -0.0039931526 0.13728034 0.86415702 -0.50194585 -0.073937796 0.17793392
-0.00019030948 -0.0016096176 0.13661651 0.89244908 0.45123193 0.010417128 0.20814055
0.00018745253 -0.0029662163 0.13752598 0.90241575 0.43032268 -0.030521933 0.21507347
0.0019040143 -0.0056295018 0.13719192 0.86045748 0.5109188 -0.015863802 0.21717864
0.0011183328 -0.0091877608 0.137445 1.0080699 0.11612637 -0.013306307 0.21759726
-0.0013095915 -0.00723028 0.13736957 0.99300605 -0.15654466 -0.0071465974 0.21899402
0.0003817589 -0.0033951518 0.13841735 0.90047467 -0.43287769 -0.080147013 0.18588544
0.0017430114 -0.0021448447 0.13658057 0.90172464 -0.426741 -0.078118503 0.16162625
-0.00081251911 -0.00073177554 0.13605882 0.99503589 0.085526451 0.05389509 0.18536302
-0.00021232688 -0.0010194926 0.13664043 0.97844326 0.20466939 0.029397013 0.19605951
-0.0010347294 8.4963074e-05 0.13736752 0.93600172 0.35005915 -0.043926146 0.2027294
-0.00020831361 -0.0038551604 0.13746089 0.99064535 0.14568064 0.025855161 0.21308133
0.00087369804 0.0012519457 0.13577858 1.0007452 -0.065835625 -0.050259832 0.18142429
-0.0013356833 0.002753885 0.13753454 0.95997471 0.29547411 -0.014120862 0.20114009
-0.0020023095 0.0043223142 0.13768412 0.94705904 0.34841791 0.0035933109 0.20495915
-0.00085236091 -0.00082420185 0.13672745 0.92596972 0.38011548 0.0021810033 0.20020679
-0.00024902343 -0.0020970204 0.136977 0.93337262 0.36158782 -0.027652927 0.20644516
1.7639017e-05 0.006167802 0.13681352 0.93625891 -0.36152205 0.082402766 0.19341478
-0.0030152744 0.010277199 0.13584553 0.96636522 0.34512863 0.019514168 0.20827188
-0.0038003605 0.0065253093 0.13671646 0.89089608 0.49116722 0.0050766468 0.20550378
-0.0048388904 0.0025938214 0.13695325 0.74250787 0.67121381 0.013504341 0.21159266
-0.0016518829 -0.00018674135 0.13699925 0.78819007 0.61744446 -0.025190037 0.1953882
-0.00034788658 -0.0018994558 0.13490365 0.82844216 0.56163847 0.0071316119 0.19000801
9.557663e-05 0.005201207 0.13946818 0.81005937 -0.61807179 0.088164419 0.21239537
-0.0011517695 0.011270355 0.13872321 1.0054761 0.093807369 0.0459929 0.23284936
-0.0086164707 0.0047546825 0.13797963 -0.67899466 -0.73635584 0.041797612 0.22582081
-0.0052473024 0.0021896232 0.13801311 -0.64187461 -0.76926482 0.040466707 0.2083918
-0.0020306115 0.00043671834 0.13684075 -0.57173038 -0.82229698 0.04494711 0.18474014
-0.00432429 -0.0069529014 0.14085871 -0.23789144 -0.97655886 -0.034530517 0.16574791
0.0028717711 -0.0067173592 0.14123358 -0.54525298 -0.8615346 -0.019990996 0.23405707
0.00088623312 -0.0056908177 0.14270303 -0.30012888 -0.96654475 -0.0036062384 0.23496392
0.0018680536 -0.0058276323 0.14169544 0.77964109 0.62633997 -0.045704748 0.24216394
0.0027132533 -0.0081620822 0.14197053 0.9084028 0.42662621 -0.029109459 0.2445554
0.0022942913 -0.01087104 0.14135732 0.98416495 0.23351131 -0.020531544 0.24320796
-0.0020263398 -0.0093945563 0.14206913 0.98228109 -0.2368748 -0.033783544 0.25034443
-0.00056170003 -0.0016036422 0.14099336 0.91442734 0.38434747 -0.1277573 0.22965376
0.00030215638 -0.0032184515 0.14178135 0.90663725 0.41015366 -0.10984192 0.23324686
0.0019501168 -0.0068226159 0.14246844 0.91261256 0.41451102 -0.047851972 0.24522844
0.0020418556 -0.0089174928 0.14251912 0.96512884 0.29027754 -0.0068558059 0.24459243
-0.0018273809 -0.0061144358 0.14116032 0.95745713 -0.3019557 0.025357183 0.2461734
5.2146192e-05 -0.0039787926 0.14198326 0.90872639 -0.42667738 0.0026147291 0.21736118
0.0015637516 -0.0020498375 0.14010021 0.94866979 -0.32079208 -0.07421694 0.18858434
-0.0010524195 -0.0001806216 0.14152168 0.92803156 0.3356871 -0.16274515 0.23596698
-0.0010216443 0.00021750762 0.14160924 0.9227559 0.36823148 -0.11857449 0.22708134
0.00029429444 -0.0049813781 0.14194043 0.97163808 0.24643168 0.029548259 0.23785256
-0.0021505717 0.0028564562 0.1421521 0.90989655 0.41587025 -0.086801939 0.23012379
-0.0026154383 0.0040239813 0.14190546 0.9128049 0.42189726 -0.057514854 0.22336477
-0.00095813937 -0.00071323616 0.14091375 0.93643045 0.33867562 0.10334402 0.23062041
0.00063426152 -0.0014824488 0.14180715 0.93200999 0.36698836 0.051370606 0.21785091
-0.0019481335 0.0050900122 0.14254989 0.96336102 -0.27455997 -0.05095163 0.2209297
-0.00049649965 0.0052071973 0.1417283 0.9460696 -0.33016694 -0.032439511 0.24238522
-0.0019407129 0.0094685666 0.14224765 0.9995715 0.29012442 -0.098299928 0.25528961
-0.0039244643 0.0058805444 0.14268374 0.88038188 0.49618232 -0.06463629 0.24161714
-0.0045182747 0.0034190246 0.14183138 0.80559033 0.59806007 -0.015996069 0.23496792
-0.002120968 0.00072435651 0.14126386 0.79439324 0.61410981 -0.011875484 0.22263972
0.00020980832 -0.0011763982 0.14176776 0.84293771 0.54262412 0.028810931 0.2187441
-0.0025004223 0.0049073095 0.14222676 0.8433634 -0.57396609 0.054434877 0.2152479
-0.00060744793 0.0051115262 0.14106092 0.84007996 -0.57306165 0.050252993 0.23204985
-0.008914494 0.0097883688 0.14231738 0.7454716 0.68998039 -0.15319742 0.25572973
-0.0073479339 0.0070688832 0.14240764 0.77631283 0.63721943 -0.097222611 0.24732387
-0.0052996539 0.0024708093 0.1417831 -0.68915027 -0.72892737 0.066463552 0.23744173
-0.0015571191 0.0012502468 0.14274395 -0.62096471 -0.78869677 0.04226169 0.21061584
-0.0028726454 -0.0072640902 0.14577393 -0.12988289 -0.99196166 0.072515287 0.21491174
0.0021097828 -0.007532469 0.1441063 -0.55163378 -0.80992687 0.23478474 0.26402313
-0.00095682999 -0.0066632801 0.14495516 -0.22348921 -0.92981672 0.29465669 0.25680754
-0.0018185043 -0.0060731033 0.14419535 0.78442997 0.55450302 -0.28028053 0.22626449
0.0013959192 -0.0071770409 0.14468615 0.8560015 0.4153983 -0.32166791 0.26737425
0.0021842346 -0.0081331534 0.14605692 0.94775152 0.31396747 -0.14627549 0.26430923
0.0017201126 -0.010660123 0.1469834 0.99298751 0.19094621 -0.034022577 0.26642174
-0.0021437365 -0.0085843699 0.14577848 0.97557789 -0.2466564 0.049465127 0.26730579
-0.00055980857 -0.0018077561 0.14492197 0.86275578 0.28764626 -0.42980179 0.25478145
0.00056576007 -0.0039408654 0.14553168 0.91060156 0.30468342 -0.30368727 0.26300931
0.0020041014 -0.0070298929 0.14770614 0.94765967 0.29073149 -0.20688783 0.27320799
0.00070436153 -0.0086918557 0.14792015 0.99877435 0.14371927 -0.020827577 0.26955968
-0.00078089547 -0.0083060414 0.14589369 1.0044318 -0.062566675 0.047548998 0.26276919
0.00065528363 -0.0037335271 0.144651 0.92839676 -0.33623266 0.16395149 0.24224384
0.002447946 -0.0019974932 0.14412063 0.96145964 -0.29951388 0.011582421 0.21193597
-0.0013948597 0.00023036863 0.14366247 0.87712926 0.31390116 -0.37220922 0.2493095
-0.00024152634 -0.00012150186 0.14683223 0.91601026 0.31147254 -0.27694532 0.26482257
-0.00026409628 -0.0050141285 0.14889476 0.96741676 0.2332754 0.10879655 0.26970136
-0.00024281003 -0.004165018 0.1461339 0.96423811 0.24350114 0.11469015 0.26004767
0.0012607205 -0.0021568974 0.14538269 0.96011496 0.086567029 0.26626086 0.24267176
-0.0035949673 0.0026050559 0.14524479 0.91635442 0.039611116 -0.41343623 0.21663633
-0.0025898663 0.0016305771 0.14407533 0.87800807 0.12620749 -0.47671682 0.24132805
-0.0018033283 0.0037974957 0.14721128 0.89005631 0.41835764 -0.2346994 0.26388967
-0.0029655285 0.0052054278 0.14645775 0.88935101 0.45847672 -0.15577669 0.25790101
-0.0012418649 -0.0016567197 0.1485998 0.9427309 0.30540282 0.13640794 0.27385449
-0.0013712784 -7.4165357e-05 0.14592153 0.93785763 0.29251987 0.18724553 0.27036676
0.00076054863 -0.001843057 0.1439939 0.90974969 0.31133035 0.27484173 0.2416935
0.0017707412 -0.0013375191 0.14511126 0.99241126 0.13810736 0.065444924 0.21795776
-0.0029526139 0.0056968918 0.14359677 0.9575938 -0.041198179 -0.29889807 0.22703663
-0.0014494198 0.0060391426 0.14457308 0.95142549 0.016597694 -0.34752604 0.25356278
-0.0013022623 0.0087590963 0.14680052 0.96475297 0.31232181 -0.30999938 0.28264353
-0.0038204773 0.0068337601 0.14823483 0.89604956 0.46876532 -0.12000456 0.27939275
-0.0045776237 0.0038542349 0.1462653 0.82300216 0.57219321 0.03687254 0.2710585
-0.0018770081 0.0012233218 0.14496869 0.80803311 0.54312909 0.22853911 0.25546771
-0.00038600239 -0.00059770839 0.14318985 0.86927223 0.48104849 0.12559375 0.23524487
-0.0027989724 0.0049258019 0.14368142 0.86337769 -0.53084171 -0.034795247 0.22579013
-0.00085376098 0.00590163 0.14340129 0.89610571 -0.46298781 -0.036156882 0.24404062
