# .PCD v0.7 - Point Cloud Data file format
VERSION 0.7
FIELDS x y z
SIZE 4 4 4
TYPE F F F
COUNT 1 1 1
WIDTH 1320
HEIGHT 1
VIEWPOINT 0 0 0 1 0 0 0
POINTS 1320
DATA ascii
-0.0157787 -0.02629873 0.10047825
-0.014379537 -0.02668082 0.10031182
0.016830044 -0.025833564 0.10011764
0.017409714 -0.025455207 0.10080241
-0.017042175 -0.02572277 0.10038358
-0.015824625 -0.026131442 0.099771552
0.018014582 -0.024860812 0.1007477
0.019181482 -0.023644676 0.1003644
0.019535067 -0.023061991 0.10029363
-0.021288296 -0.021648519 0.10087714
-0.018333465 -0.024928072 0.10002504
0.020880951 -0.021043407 0.10049077
-0.022335242 -0.02043893 0.10102558
-0.022004584 -0.020868272 0.10064655
0.020073371 -0.022779211 0.10098285
-0.022907134 -0.019907268 0.10086355
-0.022615125 -0.020254355 0.10015565
0.021315156 -0.021030303 0.10056607
-0.022988018 -0.019746371 0.10023133
-0.022502039 -0.020533187 0.1000274
0.021942245 -0.020096043 0.10041099
-0.023644308 -0.01839512 0.10006394
-0.023643125 -0.019016134 0.10089753
-0.023321353 -0.019351533 0.10021023
0.022451965 -0.018934779 0.10026105
-0.024291148 -0.017402278 0.1001175
0.02290367 -0.01668822 0.10070633
-0.02546268 -0.015342505 0.10070738
-0.024924075 -0.016372154 0.10017325
0.023303906 -0.015531649 0.10058699
-0.026563663 -0.013401804 0.10114202
-0.026069079 -0.014289164 0.10076624
-0.02555114 -0.015293439 0.10022474
0.023576502 -0.014304623 0.10048344
0.02440857 -0.012895416 0.09999083
-0.027493753 -0.011292747 0.10060433
-0.027227029 -0.01165283 0.10008293
0.024532642 -0.011770737 0.10100502
0.024517387 -0.01161651 0.099900685
-0.028372835 -0.0091107897 0.10107891
-0.028114259 -0.0097479578 0.10059592
-0.027934609 -0.010323871 0.10065168
-0.027806217 -0.010526938 0.10013833
0.02490747 -0.010564398 0.10097307
-0.028536033 -0.0086105727 0.10067891
-0.028331071 -0.0092863087 0.10072556
-0.029078651 -0.0066687171 0.10050026
-0.028887123 -0.0074488041 0.10078003
-0.02921463 -0.0056097708 0.10062994
-0.029192025 -0.0062530884 0.10088898
0.025875174 -0.0065340241 0.10076603
-0.029394422 -0.0050271475 0.10100108
0.025756195 -0.0052109128 0.10080034
-0.029348413 -0.0044946815 0.10071964
0.025796175 -0.0039434605 0.10079741
-0.029398831 -0.0033510921 0.10083289
-0.029319482 -0.0024810401 0.1005732
-0.029384926 -0.0021844846 0.10095149
0.025867792 -0.002706883 0.10075434
-0.029232791 -0.0013092989 0.10074297
-0.029308334 -0.001099236 0.10005701
0.02588002 -0.0014587458 0.10070608
-0.029372739 -0.00098963187 0.10106564
0.025904605 -0.00023411415 0.10065922
-0.02911566 0.0002136144 0.10022291
-0.028999424 0.00092472788 0.10099011
-0.028844597 0.0014748363 0.1004002
0.025876522 0.00098591845 0.10058916
-0.028803188 0.0020084756 0.10111026
-0.028628591 0.0027165869 0.10055093
0.025763102 0.0022091044 0.10052137
-0.028295623 0.0038867947 0.10070299
-0.02779902 0.0049615395 0.10087056
-0.027453018 0.0058334377 0.10035392
-0.026893958 0.0069545805 0.10056187
0.025304237 0.00605158 0.10104525
-0.0264361 0.0075296462 0.10073584
0.024964513 0.0071713659 0.10099588
-0.025990672 0.0082792016 0.1000898
-0.025291953 0.0093518086 0.10033361
-0.024581164 0.01046862 0.10064171
-0.024778349 0.011773674 0.10076121
0.023857528 0.010306254 0.10025496
-0.024549035 0.011553778 0.099882856
0.023383157 0.011347583 0.10022289
-0.024066081 0.011625757 0.10097157
-0.024155883 0.01282674 0.10000914
0.022794651 0.012700139 0.10021819
0.022853907 0.012494091 0.10044341
-0.023900129 0.01381477 0.10027017
-0.023789516 0.014162684 0.10013226
-0.022988057 0.015997605 0.1004335
0.022242131 0.013749986 0.10093655
-0.023414444 0.014858443 0.10052219
-0.022168547 0.017180569 0.10058413
-0.022938877 0.015753577 0.10080644
-0.022449996 0.016790498 0.10079995
-0.020222958 0.019072887 0.1004265
-0.022486802 0.016395049 0.10112158
-0.021993214 0.016724614 0.10040537
-0.020400528 0.018823445 0.10061533
-0.01870022 0.020115046 0.099900633
-0.023382584 0.015422117 0.10233583
-0.023025319 0.015800772 0.10195863
-0.02246229 0.016129674 0.10125189
-0.021586811 0.017015524 0.100888
-0.01966656 0.019299015 0.10087348
-0.017774619 0.020692887 0.10014906
-0.015283776 0.02224851 0.09991692
0.016828449 0.019331343 0.10064544
-0.01979599 0.018647529 0.10043686
-0.019463768 0.019006558 0.10031896
-0.01844804 0.020032523 0.10046192
-0.014434391 0.02260853 0.10014713
0.016212152 0.019916354 0.10057209
-0.017926665 0.020215742 0.10086807
-0.017117977 0.020897252 0.10086045
-0.016289283 0.021467727 0.10091927
-0.015429733 0.02205622 0.10099824
-0.013667651 0.022932742 0.10034727
0.015570314 0.020561805 0.10050288
-0.015719237 0.021630378 0.10014851
-0.014733679 0.022318155 0.10038631
-0.013235636 0.023054261 0.10069291
-0.012552235 0.023348626 0.10099652
-0.0087399138 0.024522122 0.10044021
-0.012037748 0.023454892 0.10013141
-0.010955708 0.023731794 0.10058206
-0.0098790368 0.024110399 0.10032931
-0.0018547727 0.02536048 0.10086828
-0.00056004187 0.025059519 0.10100885
0.00072567764 0.024736112 0.10110036
-0.012222776 0.023300141 0.10067213
-0.0083467709 0.024507379 0.10080539
-0.0057623647 0.025632912 0.10044505
0.00076618604 0.024759859 0.099987127
0.0020574371 0.024703048 0.10009886
-0.0057622688 0.025441969 0.10067462
0.0086985063 -0.029352557 0.10281337
0.0101109 -0.029112652 0.10266046
0.010770977 -0.028877076 0.10297544
0.010319401 -0.02881211 0.1020446
-0.016537217 -0.027766781 0.1032779
-0.014768646 -0.027829712 0.10374964
-0.011916911 -0.028382109 0.1047626
0.01009379 -0.028997792 0.1015778
-0.017063074 -0.026831567 0.10269424
-0.01486872 -0.026998702 0.10357511
0.010221093 -0.029124817 0.10140971
0.014451991 -0.027734457 0.1003591
0.016118862 -0.027119908 0.099349014
0.010527926 -0.029189615 0.10132521
0.013902837 -0.027977871 0.1011296
0.014990041 -0.027374884 0.1009288
-0.020216692 -0.025367463 0.10291892
-0.017649183 -0.025336988 0.10228051
-0.01618663 -0.025576636 0.10190545
-0.0090766484 -0.027123643 0.101816
-0.0079001738 -0.027503645 0.10165316
0.013209406 -0.028362859 0.10161817
0.014472687 -0.027676729 0.10127919
0.0094640749 -0.029483493 0.10103517
0.010707573 -0.029165702 0.10102563
0.013334874 -0.028233625 0.10185279
0.014237557 -0.02777572 0.10168631
-0.020392057 -0.024296558 0.10274871
-0.018285032 -0.024870351 0.10198876
-0.016722541 -0.025397973 0.10155433
0.011278733 -0.028960953 0.10205678
0.012330493 -0.028609768 0.10195334
0.013811502 -0.028058888 0.10143678
0.015080379 -0.027299788 0.10124639
0.016017934 -0.026514083 0.10178728
-0.020768786 -0.023268927 0.10252904
-0.018993247 -0.024305718 0.1018636
-0.017455563 -0.025289582 0.10135444
-0.01441356 -0.026873063 0.10106286
-0.012990265 -0.026980996 0.10091171
0.014332426 -0.027574984 0.10149919
0.01544308 -0.026918814 0.10158686
0.0165345 -0.026203774 0.10111833
0.018601201 -0.023980079 0.10149507
0.018733477 -0.023519689 0.10143041
-0.020811949 -0.022601118 0.10191516
-0.020400284 -0.022946659 0.10168674
-0.019837901 -0.023796778 0.10177903
0.016159741 -0.026256179 0.10115504
0.016736437 -0.025796389 0.10182434
0.017670527 -0.025067715 0.10186744
0.018237187 -0.024517519 0.1016713
-0.021397261 -0.021837234 0.10184816
-0.017312475 -0.025825607 0.10151234
-0.015947469 -0.026344217 0.10141611
0.018896559 -0.023891652 0.10204786
-0.02207078 -0.021022899 0.10169417
-0.021161349 -0.02217884 0.10164878
-0.019749809 -0.024438722 0.10172141
-0.018601852 -0.025224999 0.10156056
0.017334269 -0.025237944 0.10177603
0.020147778 -0.02253294 0.10112631
-0.022652812 -0.020301197 0.1020091
-0.02207681 -0.021088341 0.10181396
-0.021963309 -0.021357473 0.10165779
-0.022013875 -0.021398205 0.10149732
-0.021492764 -0.022221565 0.10130822
-0.020838933 -0.023142695 0.10114038
-0.019913686 -0.024062227 0.10099705
0.019632502 -0.023239756 0.10201756
-0.022887869 -0.020056257 0.10187521
-0.022574469 -0.020621359 0.10169137
0.021114705 -0.021594247 0.10154913
0.021942589 -0.020353137 0.10186485
-0.023366047 -0.019346479 0.10166276
0.0224165 -0.019366585 0.10177416
-0.024654992 -0.017037842 0.10172669
-0.024014244 -0.018523939 0.10169355
0.022719154 -0.018198293 0.10167383
0.022634162 -0.017559683 0.10147786
-0.025332287 -0.01594365 0.10177151
-0.024837425 -0.016876411 0.10145912
-0.025008075 -0.016875543 0.10150775
0.022986867 -0.016965225 0.10158893
0.022908909 -0.016454747 0.10137093
-0.025951913 -0.01489686 0.10184891
-0.02545663 -0.015841678 0.10153195
0.023271823 -0.015721722 0.10148858
0.023221092 -0.015317472 0.10125644
-0.026475498 -0.013814369 0.10196402
-0.026040014 -0.014770201 0.10161822
0.023701467 -0.014158864 0.10112731
-0.02710134 -0.012323756 0.10124318
-0.026796089 -0.013285927 0.10121231
0.023844248 -0.013014901 0.1020272
0.024083197 -0.012954955 0.10101561
-0.027736595 -0.010770056 0.1018219
-0.02756636 -0.011222826 0.1013203
-0.028163109 -0.0095893601 0.10185673
-0.028023327 -0.010102641 0.10140706
-0.028544588 -0.0085963057 0.10196723
-0.028426239 -0.0089559574 0.10155127
0.02567626 -0.0090261558 0.10087677
-0.028676653 -0.0081115086 0.10116874
-0.028981073 -0.0070805522 0.10125935
-0.028826278 -0.0077341748 0.10164726
0.025520101 -0.0078063514 0.1018729
0.025915163 -0.0078114611 0.10083377
-0.029226718 -0.0059912945 0.10136552
-0.029144783 -0.0064977729 0.10176886
0.025568057 -0.0065212329 0.10179995
-0.029395251 -0.0052199466 0.10189427
0.025604833 -0.0052357954 0.10173371
-0.029381232 -0.0048545473 0.10148235
0.025722429 -0.0039714663 0.10166728
-0.029438425 -0.0037661004 0.10115249
-0.02945007 -0.0025119246 0.10129411
0.025827019 -0.00270253 0.10159117
-0.029357512 -0.0014089571 0.10197778
-0.029383484 -0.0012954701 0.10146151
-0.02952655 -0.0011580372 0.10186079
0.02592171 -0.0014279794 0.10149949
0.026031882 -0.00015084453 0.10140229
-0.029256437 -4.7273992e-05 0.101548
-0.029377565 0.0001273751 0.10199293
-0.028987709 0.0011204184 0.10166981
-0.029022865 0.0016883088 0.10124859
0.026035856 0.0010925808 0.10168566
-0.028703345 0.0021845705 0.10184398
-0.028664337 0.002597488 0.10143321
-0.028662348 0.0029513156 0.10141176
0.026018675 0.0023179615 0.10178946
0.025856106 0.0035854999 0.10153466
-0.02837218 0.0032433392 0.10192824
-0.028363395 0.0038041787 0.10153643
-0.028272076 0.0041494528 0.10155702
0.025661048 0.0047920607 0.1014604
-0.027519867 0.0044761403 0.10240398
-0.02765012 0.0049579861 0.1017879
-0.027686136 0.0052579688 0.10172311
-0.026985215 0.0061020097 0.10204264
-0.026936606 0.0072779031 0.10146137
0.025353443 0.0063736672 0.10182902
0.025019011 0.0075394381 0.10181248
-0.025945241 0.0087935608 0.10168517
-0.026378486 0.0084185423 0.10154963
0.024696875 0.0086808922 0.10170989
-0.025543021 0.009419647 0.10175946
-0.024838898 0.010729561 0.10132743
0.024325706 0.0097814128 0.10165972
0.023680428 0.011477321 0.10123087
0.023875125 0.010809218 0.10163103
0.022663975 0.013422335 0.10184956
-0.023568176 0.015519686 0.10125025
-0.023327813 0.015799459 0.10110196
0.022029098 0.014271272 0.10178471
-0.022034613 0.017628228 0.1016087
0.020169362 0.016470114 0.10199002
-0.022935098 0.016442873 0.10149406
-0.021852814 0.017352743 0.10122516
-0.021470789 0.018102692 0.10193904
0.017869975 0.018787548 0.10160203
0.018616749 0.017946087 0.10163887
0.019850928 0.016488783 0.10184768
-0.022286374 0.01690085 0.10220801
-0.01733217 0.021167114 0.10114346
0.01910042 0.017029695 0.1017877
-0.025034005 0.016253032 0.10428584
-0.023955192 0.015883811 0.1036119
-0.023353571 0.015887799 0.10307515
-0.022829842 0.016294761 0.10258891
-0.021420984 0.017627489 0.10175979
-0.019188952 0.019895112 0.10183887
0.018442526 0.017629363 0.10167583
-0.019016575 0.019620478 0.10109232
-0.018504344 0.020231394 0.10197406
-0.019209219 0.019235916 0.10170423
-0.018458705 0.019990366 0.10161958
-0.017345473 0.020943172 0.10148349
-0.013779581 0.022976976 0.10116694
0.01568993 0.020419717 0.10143518
-0.015017266 0.022250144 0.101656
-0.014085351 0.022745458 0.10177297
-0.01303478 0.023223799 0.10150814
0.014908675 0.020804174 0.10144315
-0.016807502 0.021128286 0.10157289
-0.015913699 0.021761641 0.10154072
-0.012266825 0.023445688 0.10141811
-0.011476736 0.023688298 0.10110866
-0.0099857925 0.02405121 0.10188753
-0.008848276 0.024456685 0.10201454
-0.002007667 0.025289744 0.10186816
-0.00066143845 0.024985436 0.10206155
0.00064832292 0.024609737 0.10221511
0.0019450159 0.024279932 0.10230413
0.0032662728 0.024365127 0.1013592
0.0045035598 0.024689445 0.10176431
-0.013146376 0.023033803 0.10153844
-0.011835679 0.02346725 0.10157277
-0.011089541 0.023728667 0.10176259
-0.01021233 0.023940047 0.10184694
-0.0095724864 0.0242036 0.10099754
-0.0084517729 0.024575213 0.1011083
-0.0072824601 0.024997542 0.10119966
-0.0060480139 0.025363548 0.10132612
0.0020035608 0.024537256 0.10123489
-0.0096173193 0.023979355 0.10200481
-0.0075595258 0.024713794 0.10171054
0.012022683 0.021329131 0.10340472
-0.0071146665 0.024759596 0.10196475
-0.0053612771 0.02524288 0.10187344
0.0093712425 -0.029143 0.10294977
-0.014096716 -0.029618215 0.10479616
0.0091300532 -0.029293317 0.10263703
-0.016043514 -0.028091257 0.10464194
-0.014166807 -0.028588444 0.10473091
-0.011120759 -0.028983789 0.10541155
-0.010456407 -0.028553547 0.10478162
0.01528223 -0.028395493 0.099351332
-0.014160466 -0.027525723 0.10448138
0.0090956008 -0.029431626 0.10233615
-0.016563915 -0.02687986 0.10355107
-0.016134497 -0.027121698 0.10458522
0.0093510598 -0.02949371 0.10228441
0.012704287 -0.028290739 0.10174716
0.013788308 -0.027839253 0.10109306
-0.016848886 -0.02614319 0.1033721
-0.017259743 -0.025649492 0.10307793
-0.0067797014 -0.028162971 0.10289849
0.013722911 -0.027837759 0.10217983
-0.0079462603 -0.028009806 0.10205258
0.012339798 -0.028422749 0.10258812
-0.017885204 -0.025270911 0.10278241
0.012934964 -0.02816114 0.10263511
0.013855767 -0.02761304 0.10273137
0.014633459 -0.027147055 0.10262638
0.015425764 -0.026676517 0.10239249
-0.020456886 -0.023696655 0.10327789
-0.01866129 -0.024893105 0.10263462
0.014029596 -0.027178952 0.10329022
0.014863109 -0.027069995 0.10221033
0.01538343 -0.026539536 0.10285173
0.016417008 -0.025870629 0.10271391
0.017129967 -0.025371799 0.10249043
0.017673418 -0.024831228 0.10222106
-0.02122453 -0.022391351 0.10242355
-0.020965984 -0.022807291 0.10301403
-0.020208763 -0.023490008 0.10243338
-0.019526068 -0.024492504 0.10263688
-0.015889697 -0.026466822 0.10211254
-0.01466044 -0.027077919 0.10200233
0.015936039 -0.02604511 0.10285123
0.018708864 -0.023914075 0.10256126
0.019164195 -0.023409715 0.102333
0.019488694 -0.022948267 0.1022057
0.019659458 -0.022608612 0.10215056
-0.017137229 -0.025931854 0.10222663
-0.01333907 -0.02714886 0.10279614
-0.021808356 -0.021546504 0.10244601
-0.021786626 -0.021706954 0.10284141
-0.020994568 -0.022762215 0.10246751
-0.021199949 -0.02258322 0.10205317
-0.0205941 -0.023481777 0.10188416
0.018290626 -0.024226068 0.10308781
-0.022503989 -0.020768475 0.1028751
-0.021699511 -0.021820875 0.10222461
-0.021721236 -0.022294708 0.10291838
-0.018833039 -0.025011759 0.10262556
0.01999186 -0.022795537 0.10265118
0.021943172 -0.020432455 0.10260474
0.022023948 -0.020114159 0.10263532
-0.023383431 -0.019375982 0.10216984
-0.023135923 -0.019952396 0.10248732
-0.023013392 -0.02028868 0.10248376
0.020739144 -0.022095963 0.1026111
0.021745799 -0.020790007 0.10280798
0.022334872 -0.019811602 0.10275719
-0.024524186 -0.017409675 0.1024987
-0.024464624 -0.017683344 0.10294434
-0.024076194 -0.018382981 0.10223466
0.022776907 -0.01788527 0.1023138
-0.025188027 -0.016344843 0.10260326
-0.025542004 -0.015811382 0.10274675
-0.025270505 -0.016205743 0.1021894
0.022996685 -0.01668993 0.10222735
-0.025838031 -0.015218087 0.10275657
-0.02540718 -0.016320406 0.10236757
0.023186611 -0.015460751 0.10213489
-0.026296042 -0.014192255 0.10284932
0.023421133 -0.014377791 0.10307157
0.02349126 -0.014241152 0.10205705
-0.027044537 -0.0124452 0.1026301
-0.026947757 -0.012708103 0.10207997
-0.02627374 -0.014420864 0.10270116
-0.027522411 -0.011253039 0.1026796
-0.027445031 -0.01159007 0.10219157
-0.027572364 -0.011271359 0.10246684
-0.027390961 -0.011919138 0.1023479
0.024330327 -0.011428134 0.10197179
-0.028091064 -0.0098892739 0.10201725
-0.027932389 -0.010182375 0.10283786
-0.02789061 -0.010454568 0.10233176
0.024947068 -0.010237736 0.10192501
-0.028491465 -0.0087368386 0.10212622
-0.02836974 -0.0088756643 0.10282522
-0.028311804 -0.0092409095 0.10244714
-0.028262533 -0.0093446113 0.10278457
-0.028101608 -0.0099107819 0.10272955
0.024890369 -0.0090558017 0.10294516
0.025292026 -0.0090448884 0.10191113
-0.028695704 -0.0081875073 0.10219882
-0.028890312 -0.0075493068 0.10212497
-0.028730169 -0.0080157276 0.10259044
0.025111072 -0.0078059416 0.10289627
-0.029116567 -0.0063492805 0.10234373
-0.02913386 -0.0064131296 0.10221726
-0.029055461 -0.0067324014 0.10274083
0.025201796 -0.0065327622 0.10280525
0.02532826 -0.0063292845 0.10233023
-0.029309632 -0.0051128711 0.1024676
-0.029315613 -0.0052312925 0.10236236
-0.02926557 -0.0053997985 0.10288407
0.025332626 -0.0052627935 0.10271656
0.025402658 -0.0050614635 0.10231069
-0.029369736 -0.0043949978 0.10275435
0.025567137 -0.0038356271 0.1022518
-0.029468864 -0.0037707009 0.1025184
-0.02950987 -0.0039055822 0.10202465
-0.029451175 -0.0040429882 0.10302379
0.025531249 -0.0039957403 0.10261966
-0.029514955 -0.0025545787 0.10269541
-0.029597603 -0.00258271 0.10215382
0.025730602 -0.0027118302 0.10248741
0.025701178 -0.0026122248 0.10222773
-0.029434538 -0.0013339336 0.10285661
-0.029535815 -0.0012642137 0.1022815
-0.029612532 -0.0013635143 0.10281738
0.02597411 -0.001401255 0.10236209
0.025879212 -0.0013985843 0.10218187
-0.029263729 -0.000595705 0.10279561
-0.029415954 -1.0292162e-05 0.10295249
0.026047911 -8.8685912e-05 0.10276783
0.026007548 -0.00017554333 0.102112
-0.029346263 1.9641215e-05 0.10240951
-0.028993422 0.00086307828 0.1023825
-0.029033776 0.0012549732 0.10247358
0.026149133 0.0011987416 0.10284603
-0.02864513 0.0018983365 0.10253438
-0.028620953 0.002362384 0.10263861
-0.028652342 0.0026089218 0.10225872
0.026098005 0.0024839409 0.10275521
-0.028210452 0.0038033065 0.1023847
0.025980202 0.0037481096 0.10267098
-0.028253518 0.0028975233 0.10269528
-0.0280756 0.0034516393 0.1027839
-0.027447656 0.0042052795 0.10324229
-0.027450755 0.0046549276 0.10302585
-0.027661117 0.0050045103 0.10253911
-0.027590314 0.0055026333 0.10263389
0.025726588 0.0049711596 0.10259451
-0.027188165 0.0062127379 0.10269586
-0.027099272 0.0066454043 0.10276041
-0.026880395 0.0075727422 0.10254478
0.025432572 0.0061645485 0.10251732
-0.026591174 0.0073558139 0.10288879
-0.026383048 0.0086918948 0.10260767
-0.025769332 0.0097510861 0.10268122
0.024667505 0.0090998877 0.10253981
-0.025282362 0.010886996 0.1028339
-0.025160505 0.011184085 0.10217143
0.024166025 0.010377888 0.10262363
-0.025071954 0.011441283 0.10213885
0.023802802 0.011445227 0.10281242
0.023827445 0.011248717 0.10239192
0.023342486 0.012200611 0.10232589
-0.023577891 0.016203297 0.10222249
0.021438977 0.014991092 0.10214391
0.02278934 0.013085072 0.10225929
-0.022486834 0.017432148 0.10233638
0.019731253 0.0168187 0.10267549
0.020835595 0.015708163 0.10205434
0.020405423 0.016063927 0.10271394
0.020969054 0.015488903 0.10258251
0.021968164 0.014301881 0.10291108
-0.022795686 0.017143622 0.10239024
-0.020748932 0.018962886 0.10294607
0.018944141 0.017599121 0.10260729
0.021358736 0.015008841 0.10279281
-0.021023752 0.018688254 0.10296091
-0.019736942 0.019602163 0.10307838
0.020215934 0.016120054 0.10246313
-0.017267682 0.021207394 0.10297736
0.016313029 0.020109637 0.10291655
0.017044587 0.019229481 0.10289089
0.018672006 0.017525123 0.10258969
0.01953131 0.016709803 0.10233729
-0.020765288 0.01851199 0.10215757
-0.015864288 0.02203289 0.1024143
0.015595892 0.021108186 0.10306478
0.016751785 0.019434581 0.10215443
-0.021811195 0.017446961 0.10331528
-0.017868983 0.020673236 0.10295255
-0.020556288 0.018280253 0.10250776
-0.019761892 0.019031193 0.10239164
-0.017916435 0.02047956 0.10208533
-0.01557257 0.022030715 0.10254965
0.015141806 0.020892965 0.10232167
-0.01811651 0.020262046 0.10220912
-0.017305478 0.020946803 0.10226897
-0.016464001 0.021529267 0.10239854
-0.012266311 0.023449609 0.10227789
-0.010429407 0.023893699 0.10281207
-0.010063173 0.024030142 0.1027167
0.014426642 0.02128276 0.10224726
-0.017426256 0.020759124 0.10217186
-0.016900891 0.021167602 0.10285359
-0.016153539 0.021622315 0.10249846
-0.014604704 0.022394624 0.10229596
-0.01364948 0.022857642 0.10241335
-0.012630639 0.023202399 0.10254356
-0.011556444 0.023596384 0.10252289
-0.0094407862 0.024114048 0.10278881
0.013692107 0.021370687 0.10243308
-0.0088675972 0.024143364 0.10293536
-0.0067767086 0.024807705 0.10260779
-0.0056173312 0.025038404 0.10267889
-0.0018949779 0.024930231 0.10295884
-0.00059871213 0.024725854 0.10206656
0.00060386461 0.024481136 0.10206706
0.001843567 0.02427173 0.10209239
0.0032291014 0.024214158 0.10210555
0.0046048346 0.024354327 0.10225644
0.0059054052 0.024394287 0.10245501
-0.0078917127 0.024477713 0.10250049
-0.0063158539 0.024809301 0.10283017
-0.013451341 -0.030013096 0.10561257
0.012056571 -0.029101633 0.10026862
-0.016389048 -0.028035924 0.10461777
-0.015357087 -0.028547784 0.10544243
-0.01348881 -0.029027194 0.10557528
-0.012354223 -0.029448483 0.10593
-0.010063973 -0.029651688 0.105868
0.014175302 -0.027866291 0.10033412
-0.0154557 -0.027538389 0.10540089
-0.013530461 -0.028088007 0.10542459
0.008182494 -0.029710688 0.1031648
0.012392756 -0.028251221 0.10121653
-0.016487438 -0.027340313 0.10481133
0.0084891422 -0.029703191 0.10318927
0.010604425 -0.028792869 0.10323527
0.013003479 -0.027810378 0.10202381
0.014483731 -0.026937449 0.10127135
-0.016402984 -0.026402943 0.10438246
0.011003662 -0.028706823 0.10341658
-0.016833726 -0.025927013 0.10397921
0.01030202 -0.029047452 0.10345908
0.011296305 -0.028684573 0.10326624
0.012209959 -0.028207052 0.10299162
-0.020911612 -0.025439844 0.10417302
-0.0067101009 -0.028815888 0.10331741
0.0080137653 -0.02982289 0.10373988
0.0092467936 -0.029493606 0.10362971
0.011476809 -0.028472219 0.10354517
0.012680302 -0.027766174 0.10375127
-0.021015899 -0.024392741 0.10407072
-0.018050991 -0.025414998 0.10385565
-0.017325381 -0.025674324 0.10354581
0.01312148 -0.027645484 0.10364641
-0.020097123 -0.024173807 0.10387001
-0.018154392 -0.025446665 0.10349045
-0.013380239 -0.027760979 0.10326671
0.014317826 -0.026809568 0.10383756
0.014991188 -0.026482772 0.10356224
0.015789103 -0.025998211 0.10329892
0.01748235 -0.024410987 0.10357266
-0.020659061 -0.023234801 0.10371827
-0.019876204 -0.024041312 0.10328592
-0.018982191 -0.025091872 0.10360084
0.015113296 -0.026245732 0.10388431
0.017511789 -0.024691006 0.10339792
0.018109819 -0.024198707 0.10312213
0.019503826 -0.022731815 0.10351946
0.019824004 -0.022374323 0.10334586
0.020711822 -0.021666154 0.10281072
-0.021545779 -0.022092024 0.10315605
-0.016038593 -0.026405383 0.10322569
-0.014751047 -0.026836518 0.10303953
0.019709362 -0.022818597 0.10323386
0.020115715 -0.022394191 0.10301876
0.020454789 -0.021991545 0.10285959
-0.021550909 -0.022112509 0.10366699
-0.021314185 -0.022706034 0.10364749
-0.02075506 -0.023565881 0.10357912
-0.019904902 -0.024501676 0.10349613
-0.018757047 -0.025334861 0.10338844
-0.017446319 -0.025928838 0.10328534
-0.014549215 -0.026337478 0.10412901
0.017555594 -0.024452776 0.10413463
-0.022253552 -0.021207035 0.10360032
-0.02230492 -0.021229088 0.10380754
-0.022013988 -0.021683831 0.10348064
0.01944308 -0.023149369 0.10373295
-0.023679994 -0.018889327 0.10324721
-0.023365181 -0.019442881 0.10335591
-0.022995472 -0.020041645 0.10328003
-0.023253066 -0.019839907 0.10301983
-0.022766821 -0.020569434 0.10343583
0.021387286 -0.021177247 0.10382406
0.022266664 -0.01978723 0.10344979
-0.023771811 -0.019039983 0.10347189
0.022065036 -0.020240922 0.10380268
0.02248551 -0.019409111 0.10335142
-0.024340551 -0.017813774 0.10336927
-0.024140531 -0.018273987 0.10372823
-0.023939647 -0.018871326 0.10313775
-0.02500378 -0.016740659 0.10349705
-0.02503271 -0.016790468 0.10305865
0.022827342 -0.018237399 0.10326453
-0.025580458 -0.015669568 0.10364737
-0.025123416 -0.016835812 0.1030883
0.023009157 -0.016949283 0.10317971
-0.025684066 -0.015420687 0.10380258
-0.025391318 -0.016214062 0.10401735
0.023181086 -0.015889872 0.10411451
0.023180353 -0.015652126 0.10310617
-0.026557842 -0.013537039 0.10306255
-0.026102722 -0.014500025 0.10371708
-0.025978774 -0.014955908 0.10340577
-0.026933128 -0.012570028 0.1032517
-0.026809093 -0.012779395 0.10352773
-0.026760107 -0.013068425 0.1029873
-0.026521225 -0.013425878 0.1039518
-0.026524931 -0.013722221 0.10365075
-0.027257977 -0.011647996 0.1036331
-0.027184939 -0.012013895 0.10324262
-0.026741387 -0.013036645 0.10373893
0.023582269 -0.012688056 0.10305423
0.023963593 -0.011465668 0.10299671
-0.02767567 -0.010501339 0.10379311
-0.027686963 -0.010748831 0.10327717
-0.027781509 -0.010524501 0.1034022
-0.027597912 -0.011134706 0.10334665
0.024324818 -0.010279749 0.10347478
-0.028337408 -0.0087134801 0.10329545
-0.028297508 -0.0090196552 0.10300668
-0.027972125 -0.0097935079 0.10353693
-0.028101709 -0.009521598 0.10343813
-0.028512646 -0.008010353 0.10357427
-0.028399657 -0.0084733712 0.10368805
0.024480386 -0.0090734409 0.10397893
-0.028738311 -0.0072046989 0.10336053
-0.028648756 -0.0078056492 0.10316211
0.024674758 -0.0078242412 0.10389709
-0.028968062 -0.0065761479 0.10328779
-0.028932529 -0.0068266634 0.10315769
-0.028812934 -0.0069373134 0.103797
0.024858909 -0.0065677823 0.10381054
0.024999686 -0.0063433959 0.10331605
-0.029170614 -0.0052950578 0.10343247
-0.029187571 -0.0056219599 0.10334482
0.025155457 -0.0050980533 0.10325687
-0.029316273 -0.0039903689 0.10357203
-0.029377751 -0.0043469905 0.10352006
-0.029298577 -0.0032162212 0.10355898
-0.029345889 -0.0036900868 0.10335361
0.02530665 -0.0038507334 0.10320228
-0.029357173 -0.0020829719 0.10386153
-0.029455239 -0.0026638941 0.10367043
-0.029523015 -0.0028892441 0.10351625
0.025566146 -0.0026228565 0.10312732
-0.029402234 -0.0013505699 0.10381267
-0.029539686 -0.0012576974 0.1032759
-0.029521797 -0.0016077078 0.10384758
0.025889771 -0.0013587708 0.10356188
-0.02919798 -6.8809837e-05 0.10394505
-0.029381013 -0.00018280699 0.10401629
0.026086373 -1.6666088e-05 0.10388078
-0.029215103 -0.00015061194 0.10303382
-0.029353291 9.835168e-05 0.10339133
-0.029036913 0.0012291089 0.10415793
-0.028927026 0.00098453555 0.10315343
-0.028914087 0.0012519844 0.10366914
-0.028959865 0.0013711627 0.10345067
0.026184164 0.0013518225 0.10377109
-0.028525889 0.0020552436 0.10328492
-0.028472487 0.0025431486 0.1035669
0.026117135 0.002689664 0.10365959
-0.028041106 0.0038055521 0.10332855
0.025946822 0.0039952234 0.10355578
-0.027831113 0.0031837043 0.10358001
-0.027862851 0.0036508329 0.10368972
-0.027348213 0.0048072599 0.10381716
-0.027595416 0.0050168745 0.10344708
-0.027412888 0.0057157734 0.10367303
0.025680944 0.0052468367 0.10346432
0.025587875 0.0054309554 0.10385286
-0.027176976 0.0062446822 0.10357182
-0.027043812 0.0068917768 0.10374345
0.02536254 0.0064601097 0.10338037
-0.026666136 0.0074463803 0.1037026
0.025061406 0.0076469383 0.10328644
-0.026242029 0.0083177472 0.10383623
0.024717653 0.0087698307 0.10318487
-0.025583642 0.0098830359 0.10400851
-0.025566099 0.011274244 0.10381717
-0.025527915 0.011503801 0.10377266
0.024039857 0.010722538 0.10377835
0.024271278 0.010029078 0.10380952
0.024321249 0.0098579414 0.1030803
0.023731861 0.011301704 0.10383967
0.023911877 0.010912679 0.10297155
0.023120591 0.012646252 0.10315192
0.023280447 0.012279594 0.10369788
0.021846469 0.014515038 0.10306759
0.022386808 0.013796859 0.1031412
-0.024402969 0.015444624 0.1035655
-0.024186898 0.015918229 0.10359937
0.0207799 0.015637016 0.10369282
0.021407261 0.014899535 0.10371863
0.022195699 0.01392786 0.10391022
0.022555871 0.013498759 0.1030549
0.022758586 0.013184118 0.103539
-0.022214845 0.017768703 0.10355252
0.020065455 0.016355939 0.10368625
0.021562934 0.014690931 0.10372318
0.022259735 0.013997845 0.10332195
-0.023746705 0.016400086 0.10370046
-0.022417994 0.017692087 0.10350931
-0.0211254 0.018626161 0.10365441
-0.021546027 0.018281609 0.10360108
-0.020417212 0.019053282 0.1040813
-0.019230381 0.019879522 0.10419422
0.017336709 0.018908883 0.103997
0.019732138 0.016533261 0.10333787
-0.020259146 0.019054951 0.10307308
-0.016716341 0.021464987 0.10406916
0.019023893 0.017091881 0.10317095
-0.023799783 0.01630942 0.10426493
-0.022994211 0.016738536 0.10384414
-0.022311017 0.017287893 0.10385175
-0.015208927 0.022294562 0.10348132
0.014148729 0.022122018 0.10367544
0.017460637 0.018494301 0.10325744
0.018309424 0.017627463 0.10301086
-0.024541156 0.016307611 0.10492038
-0.021054206 0.0181072 0.10319266
-0.020309545 0.018769125 0.10319476
-0.019113988 0.019614525 0.103861
-0.017171608 0.02104198 0.10396947
-0.014359921 0.022634646 0.10349712
0.013018357 0.022992617 0.1042169
-0.018634211 0.019955941 0.10299067
-0.017820057 0.020624796 0.10313799
-0.017256916 0.020989817 0.10302491
-0.01651339 0.021350276 0.10390963
-0.011492624 0.023600604 0.10327652
0.011160895 0.023578098 0.10461544
0.015077032 0.021030858 0.1037695
0.015523463 0.020399755 0.10288507
-0.018220991 0.02018339 0.10353869
-0.01737594 0.020795116 0.10371015
-0.016018311 0.021689752 0.10301482
-0.015124361 0.022183102 0.10316665
-0.014166886 0.022607869 0.10332587
-0.013163905 0.023009233 0.10348248
-0.012084612 0.023365892 0.10364091
-0.010923589 0.023736976 0.10375359
0.013939364 0.021703472 0.10308535
0.014316835 0.021314504 0.10361774
-0.016748494 0.021245647 0.10305104
-0.015405675 0.021958897 0.10343288
0.0069694431 0.023393743 0.10355631
0.0082343379 0.023484509 0.1037576
-0.016243273 0.021433569 0.1031292
-0.014869504 0.022112772 0.10347433
-0.010756005 0.023570988 0.1039457
-0.0086417496 0.024262588 0.10373032
-0.007084847 0.02466701 0.10343844
-0.0058765719 0.024913544 0.10353834
-0.0046064602 0.025000254 0.10364804
-0.0020142498 0.024826016 0.10392423
-0.00074598455 0.024458898 0.10402186
0.00052590022 0.024204329 0.10308201
0.0017867062 0.0239958 0.1031286
0.0030629116 0.023792824 0.1031832
0.0044029001 0.023791425 0.10329781
0.0057104393 0.023862254 0.10350434
0.013189463 0.021502981 0.10350171
0.013551407 0.021271236 0.1040657
-0.0081506986 0.024348941 0.10364553
-0.00067352515 0.02457536 0.10303058
0.012410101 0.021549176 0.10568756
-0.0055078031 0.024865109 0.10372911
-0.0052208137 0.024766374 0.10399964
-0.013945262 -0.029479232 0.10516029
-0.012709128 -0.028508095 0.10611925
-0.01133949 -0.028872166 0.10628078
0.0097307824 -0.028943224 0.10423166
-0.017616667 -0.026751734 0.10517437
-0.015806304 -0.026591331 0.10524502
-0.014792229 -0.026874356 0.10575548
-0.012763951 -0.02779408 0.10562563
0.010138053 -0.028767588 0.10436166
-0.020451581 -0.025804395 0.10450325
-0.016533164 -0.026127407 0.10501905
-0.016014237 -0.026186356 0.10463821
-0.0067865178 -0.028774705 0.10419185
0.0076176277 -0.029751686 0.10438752
0.010197461 -0.028554548 0.10497719
-0.021332076 -0.025247334 0.10477016
-0.017239362 -0.025875205 0.10490064
-0.016694557 -0.026066797 0.1043725
0.0094274329 -0.028958766 0.1049524
0.010719484 -0.028539544 0.10444923
0.011727632 -0.02810939 0.10424434
-0.021391841 -0.024183359 0.10448962
-0.020543208 -0.024714092 0.10453942
-0.019541647 -0.024586972 0.10447054
0.012042094 -0.027507326 0.10516383
0.012949613 -0.026994893 0.10482846
-0.01865299 -0.025130073 0.10410064
-0.017484933 -0.025914237 0.10442731
-0.013570311 -0.027800757 0.10442278
-0.012353078 -0.028369496 0.10422243
0.013627338 -0.026665973 0.10487621
0.016133005 -0.025289884 0.10421441
0.016857622 -0.024844116 0.10390839
-0.020461477 -0.023374654 0.10438688
-0.019459549 -0.024621356 0.10424688
0.015339612 -0.025756478 0.10450242
0.017279543 -0.024218518 0.10485102
0.017946847 -0.023777675 0.10452598
0.019095017 -0.023146203 0.10376206
-0.021152288 -0.022606172 0.10393578
0.017943038 -0.024055053 0.10433344
0.018577673 -0.023584524 0.10404659
0.019609634 -0.022559352 0.10468463
0.02009123 -0.022163698 0.1044187
0.020538157 -0.021806648 0.10423771
0.02108204 -0.021391142 0.10369823
-0.021252593 -0.022535322 0.10457838
-0.017381871 -0.025544105 0.10449563
-0.015984468 -0.025975823 0.1043019
0.017959101 -0.023936477 0.10470101
0.020214612 -0.022223875 0.10414262
0.020713795 -0.021793816 0.1038895
0.021598089 -0.020777166 0.10462105
-0.022810502 -0.020220967 0.10391323
-0.022606289 -0.020482186 0.10430164
-0.021939848 -0.021664806 0.10479278
-0.021720568 -0.022226978 0.10466535
-0.021083156 -0.023209093 0.10461641
-0.020060798 -0.024177538 0.10456792
-0.018807808 -0.024913428 0.10450375
0.018750928 -0.023416456 0.10478402
0.020131944 -0.022206115 0.10482938
-0.023388185 -0.019204216 0.1040677
-0.023059869 -0.019708147 0.10457539
-0.022596372 -0.020576857 0.10469165
-0.022213269 -0.021352684 0.10469556
0.020894002 -0.02154002 0.10489137
-0.023367731 -0.019464701 0.10411175
-0.023135753 -0.019998929 0.10441127
0.022242313 -0.019775923 0.10435404
0.022453412 -0.01904067 0.10430461
-0.024069626 -0.017825471 0.10469219
-0.024065083 -0.018149743 0.10424104
-0.024080319 -0.018484116 0.10438292
-0.024705324 -0.017072361 0.10443942
0.022722373 -0.018592181 0.10428765
-0.025279514 -0.016042128 0.10461338
0.023015931 -0.017253323 0.10421313
-0.026083499 -0.014243106 0.10432413
-0.025784597 -0.014909077 0.10482605
-0.025576424 -0.015511196 0.1050151
0.023120087 -0.013942672 0.10414601
-0.026541131 -0.013116132 0.10448027
-0.026394043 -0.01356637 0.10437982
-0.026165932 -0.014250727 0.10436255
-0.026946219 -0.01205832 0.10429691
-0.026928289 -0.011950086 0.1046389
-0.026969792 -0.012248367 0.10412069
-0.026674883 -0.012946172 0.10470339
0.023332333 -0.012719557 0.10406274
-0.027123176 -0.011467256 0.10461691
-0.026856998 -0.012272279 0.10469569
0.023590628 -0.01151439 0.10444172
-0.027326258 -0.010754244 0.10481769
-0.027412213 -0.011038189 0.10430805
-0.027973793 -0.0091295475 0.10422248
-0.028027333 -0.0092837457 0.103972
-0.027741227 -0.009484522 0.10486161
-0.027840607 -0.0097318236 0.10441646
-0.02772449 -0.010296145 0.10440342
-0.028252115 -0.0080273543 0.1044456
-0.028401596 -0.0080523556 0.10414242
-0.027955169 -0.0088086557 0.10495681
-0.028172908 -0.0084794918 0.1047053
-0.027723262 -0.0094020115 0.10545332
0.024270372 -0.0088775009 0.10439143
-0.028546138 -0.0067150523 0.10446154
-0.028458916 -0.0071990825 0.10458059
-0.02837646 -0.0076217465 0.10466128
0.024514891 -0.0076365639 0.10435932
-0.028962754 -0.0056410353 0.10381401
-0.02885491 -0.006093692 0.10392303
-0.028667221 -0.0067781582 0.10432247
0.024701141 -0.0063890778 0.10429902
-0.029018739 -0.0051616165 0.10375031
-0.02881035 -0.005287339 0.10478978
-0.028925184 -0.0054644221 0.10446406
-0.028890554 -0.0059962003 0.10436512
0.024871401 -0.0051367148 0.10422496
-0.029155761 -0.0041236035 0.10461644
-0.029139506 -0.0046983645 0.10458481
-0.029295297 -0.0033290125 0.10478418
0.025159176 -0.003901009 0.10415009
-0.0291068 -0.002085686 0.10453476
-0.029177798 -0.0024282979 0.10439372
-0.029231796 -0.0027554962 0.10443674
-0.029266492 -0.0027531572 0.10475545
0.025474505 -0.0026559872 0.10454428
-0.029271476 -0.0013729979 0.10487686
-0.029355025 -0.0018820876 0.1049668
0.025874566 -0.0013264732 0.10495328
-0.029064672 -2.2865046e-05 0.10496011
-0.029209817 0.00016190269 0.10444971
-0.029217906 -0.00038340915 0.1051283
0.026132392 7.46312e-05 0.10486396
-0.028826294 0.0011271682 0.10404424
-0.028862597 0.00116042 0.10467767
-0.028817512 0.0014986857 0.10453238
0.026133098 0.0012620417 0.10441201
-0.028334498 0.0022367476 0.1041488
-0.028280105 0.0026720457 0.10456928
0.026096353 0.0025527959 0.10431512
-0.027669013 0.0033376461 0.10433709
-0.02765297 0.0038367093 0.10465031
-0.027862668 0.0037901923 0.10435817
0.02593568 0.0038145767 0.10421768
0.025939455 0.0035119811 0.1041811
-0.027397083 0.0049989522 0.10447045
0.02575855 0.0046013724 0.10472919
0.025791593 0.0041812793 0.10478476
-0.02717304 0.0049824114 0.10473352
0.025677627 0.0050361995 0.10412321
-0.027063072 0.0062342258 0.10459734
-0.026809793 0.007040984 0.10482626
0.025300791 0.0068198498 0.10434163
0.025331259 0.0064245407 0.10462916
-0.026654087 0.0074468367 0.10469167
-0.026393734 0.008225522 0.10486235
0.024956236 0.0080209961 0.10423732
0.024959564 0.0076984321 0.10482549
-0.025949059 0.0085699512 0.1044625
-0.026195237 0.0086662285 0.10478677
0.024753205 0.0083411708 0.10443517
-0.02601249 0.0094381562 0.10492999
0.024308406 0.009958569 0.10454641
0.024500553 0.0091671143 0.10423493
0.024565775 0.0087968698 0.10468847
-0.025465639 0.0098490212 0.10459936
0.023883466 0.010647765 0.10496954
0.024148269 0.010247624 0.10398048
0.022940218 0.012533316 0.10508059
0.023416746 0.011681869 0.10479594
0.02269157 0.013204694 0.10407979
-0.024943126 0.014543002 0.10528478
0.021080019 0.015119441 0.10471441
0.021731483 0.014377013 0.10473046
0.022338001 0.013488156 0.10506421
0.022790721 0.013080399 0.10407406
0.022906912 0.012640174 0.10461068
-0.024197258 0.016009146 0.10471072
0.020378105 0.01590619 0.10476282
0.021709457 0.014305878 0.1048424
0.022416564 0.013534375 0.1043865
-0.024517499 0.014559661 0.10610746
-0.021696286 0.017951876 0.10480993
0.021015828 0.01503002 0.10458521
-0.023356762 0.016882518 0.10477636
-0.020622669 0.018820958 0.10479786
0.017549669 0.018426614 0.10517548
0.018365793 0.017646514 0.10500633
-0.020921525 0.018628763 0.10468765
-0.018637419 0.020063393 0.10532013
0.020359436 0.015716422 0.10432895
-0.024220694 0.015943058 0.10452504
-0.023511026 0.016407423 0.10447651
-0.020147875 0.018992545 0.10465581
-0.019639036 0.019459046 0.10409487
-0.018940238 0.019766152 0.10515142
-0.017659171 0.020610748 0.10529661
0.015371148 0.020753093 0.10489167
0.016144609 0.01990664 0.1047001
-0.025061944 0.015634937 0.10503176
-0.020390555 0.018601092 0.10455163
-0.019593926 0.019200562 0.10477318
-0.015081913 0.022107629 0.10515919
0.012598065 0.022399049 0.1057771
0.0139205 0.021677531 0.10568564
-0.021911032 0.017430883 0.10420649
-0.021160282 0.018029803 0.10436294
-0.018979134 0.019762274 0.10408271
-0.018315215 0.02022709 0.10405745
-0.016432203 0.021339746 0.10500603
-0.013642434 0.02280611 0.10454842
-0.018442972 0.019997895 0.10410986
-0.017836981 0.020386569 0.10462194
-0.016999247 0.020945378 0.10484909
-0.016573705 0.021324715 0.1039703
-0.015789075 0.021669954 0.10479587
-0.014679219 0.022307888 0.10427721
-0.013698553 0.02274265 0.10446015
-0.012648107 0.023157027 0.10465211
0.014442164 0.021440845 0.10477475
0.016161576 0.019445134 0.10381174
-0.016011281 0.021572245 0.10399007
-0.014642695 0.022231953 0.10439886
-0.0099576395 0.023914784 0.10427061
0.0080832681 0.023035867 0.10475465
0.009420692 0.023160337 0.10491256
0.01077632 0.02316354 0.10506043
0.013737476 0.021749634 0.10441446
-0.012261624 0.023113772 0.1046863
-0.011240175 0.023453465 0.10484893
-0.010160509 0.023800004 0.10499309
-0.007821558 0.024487425 0.10466308
-0.0061741946 0.024862355 0.10442373
-0.0021565857 0.024700364 0.10488708
-0.00083484431 0.024285475 0.10502109
0.00046121844 0.023908928 0.10442226
0.0017099059 0.023652788 0.10415776
0.0029477382 0.023353038 0.10422742
0.0042424626 0.023228534 0.10433476
0.0055258023 0.0231335 0.10446867
0.0068004192 0.023056418 0.10461088
-0.015488809 0.021776084 0.10401247
-0.01410395 0.022347344 0.10442259
-0.0097056106 0.023887243 0.10408051
-0.008597455 0.024237476 0.10420344
-0.0073338845 0.02456441 0.10453292
0.012950948 0.021562332 0.10461837
-0.0073178676 0.024489587 0.10480877
0.011763316 0.021724325 0.10619834
0.012037127 0.022526501 0.10681204
-0.013661155 -0.027994426 0.10695158
-0.011902047 -0.02882798 0.10674235
-0.010579007 -0.029455289 0.10690363
0.0084882956 -0.029060572 0.10494234
0.0088263405 -0.028940313 0.10510928
-0.015279824 -0.026681244 0.10615829
-0.013889505 -0.027341235 0.10647883
-0.012037585 -0.02821173 0.10626589
0.0098078921 -0.028256878 0.10576392
0.010678255 -0.028249852 0.10483628
-0.020797083 -0.025475893 0.10501178
-0.01990225 -0.02605639 0.10516638
-0.015808441 -0.026363507 0.10576162
-0.015248211 -0.026582751 0.10524536
0.0064275749 -0.029593172 0.1061615
0.0076052928 -0.029286753 0.10596365
-0.019942688 -0.025064556 0.10517975
-0.01652927 -0.026148252 0.10575169
-0.015952772 -0.026433425 0.10525648
-0.0098706307 -0.029896989 0.10527413
0.0067732017 -0.029666632 0.10564926
0.0080408817 -0.029364474 0.10545129
0.010564564 -0.027920095 0.1059309
0.011652131 -0.027399311 0.10548597
-0.020889824 -0.024544502 0.10498746
-0.018533263 -0.025255254 0.10501412
-0.011266542 -0.029333027 0.10556801
0.0084666582 -0.028876668 0.10649213
0.0095649119 -0.028359193 0.10622693
0.011116039 -0.027938021 0.10541456
0.01220004 -0.027051071 0.10569355
0.013276394 -0.026355451 0.10580358
0.014065918 -0.025842849 0.10544073
0.014857418 -0.02540938 0.10506301
-0.020214995 -0.024056517 0.10518314
-0.018050104 -0.025565399 0.1050304
-0.016726563 -0.026264291 0.1054272
-0.01248456 -0.028252045 0.10631568
-0.01117002 -0.028912161 0.1061797
0.012408984 -0.026798366 0.1061026
0.014517523 -0.02546368 0.10584926
-0.019979186 -0.023683425 0.10530785
-0.018806277 -0.025107693 0.10529304
-0.013540423 -0.027501198 0.10561885
-0.012519231 -0.028088229 0.10553364
0.0164994 -0.024599662 0.10530952
0.019537117 -0.022386517 0.10483883
0.020060791 -0.022023713 0.10463584
-0.019447191 -0.024387011 0.10600118
-0.015994256 -0.026466198 0.10577538
-0.014711104 -0.026956914 0.10569027
0.016959324 -0.02401763 0.10611141
0.01770211 -0.023593631 0.10579537
0.018381977 -0.023179432 0.10547197
0.019057637 -0.022996519 0.10498745
0.018984584 -0.022781147 0.10515242
-0.021485798 -0.021790251 0.10546029
-0.020710798 -0.022876417 0.10558327
-0.020201974 -0.023525609 0.10596065
0.017162031 -0.024086051 0.10573445
0.019497983 -0.022352476 0.1059227
0.020114962 -0.021930553 0.10563132
0.020629495 -0.021539433 0.10536947
0.021143446 -0.021142771 0.10515887
-0.022481477 -0.020523481 0.10478918
-0.022107035 -0.020800197 0.10564753
0.01947299 -0.022444047 0.10585239
0.021869591 -0.020075053 0.10550681
0.022086974 -0.01974139 0.1053018
-0.023072459 -0.019487917 0.10499547
-0.022673167 -0.02004586 0.10542241
-0.022409806 -0.020798087 0.10568513
-0.021902833 -0.02171346 0.10572799
-0.021201544 -0.022698184 0.10572252
-0.02006218 -0.023702499 0.10569428
-0.01875015 -0.024467725 0.10563383
0.020288695 -0.021839282 0.10593721
-0.023125285 -0.019233605 0.105565
-0.022763323 -0.019948196 0.10561838
0.021876672 -0.020154132 0.10542946
-0.023673348 -0.018087883 0.10562392
-0.023705086 -0.018442011 0.1052032
-0.023724683 -0.018473923 0.10556883
-0.023401635 -0.01901781 0.1059965
0.02256033 -0.018222904 0.10513446
-0.024718165 -0.016747842 0.10489879
-0.024420446 -0.017348627 0.10539586
-0.024265938 -0.017843749 0.10535606
0.022492711 -0.018973457 0.10540919
-0.025281789 -0.01566796 0.10511049
-0.024904078 -0.016399959 0.1056397
-0.026191648 -0.01352544 0.10502806
-0.025772279 -0.014574307 0.10529682
-0.025415944 -0.015280577 0.10585304
0.02312031 -0.014064658 0.10516451
-0.026202885 -0.013428343 0.10548338
-0.025882702 -0.014005777 0.10597838
-0.025662484 -0.014746492 0.10605903
-0.026540922 -0.012504799 0.10524713
-0.026555829 -0.012339158 0.10560385
-0.026300572 -0.013493002 0.10534832
0.02321697 -0.012785412 0.10508245
-0.02686858 -0.011448662 0.10548673
-0.026886119 -0.011460694 0.1056685
-0.026713878 -0.012101847 0.10574161
0.023270808 -0.011383248 0.1055057
-0.026966304 -0.010940174 0.10579675
0.023568114 -0.010140244 0.10544571
-0.027292904 -0.0097406339 0.10607123
-0.027858565 -0.0084224399 0.10543288
-0.028019585 -0.008267941 0.10520297
-0.027767366 -0.0089430828 0.10552567
0.023918603 -0.008914018 0.10541719
-0.028105386 -0.0072633005 0.10567184
-0.027748452 -0.0079725813 0.10629204
-0.027613774 -0.0084684622 0.10648127
0.024195386 -0.0076911799 0.10536203
-0.028436305 -0.0058768769 0.10533588
-0.028355088 -0.0063541383 0.10547044
-0.028328873 -0.006943176 0.10540267
-0.028505795 -0.0063732099 0.10543586
0.024428425 -0.0064563877 0.10527948
-0.028536018 -0.0054052114 0.10517506
-0.028811261 -0.00493511 0.10484394
-0.028623192 -0.0056251818 0.1055517
0.024673829 -0.0052066916 0.10519207
-0.0289122 -0.0043689855 0.10458633
-0.028749168 -0.0040187119 0.10553481
-0.028697407 -0.0044448506 0.1056836
-0.028838124 -0.0042457297 0.10570742
-0.028757013 -0.005040823 0.10569212
-0.028939746 -0.0036654323 0.1059238
0.025029015 -0.0039577028 0.10510878
-0.029000124 -0.0028326001 0.10586604
-0.029055379 -0.0021651215 0.10614457
-0.028859273 -0.001372184 0.10533621
-0.029049076 -0.001404769 0.10597857
0.025923291 -0.0013169709 0.10595817
0.025902223 -0.0012958572 0.10555892
-0.028880542 -1.5822457e-05 0.10602628
-0.028705392 0.0010242166 0.10574302
0.026118169 4.7407801e-05 0.10547095
-0.028690388 0.0012503898 0.10503698
-0.028470054 0.0013397613 0.1060883
0.026146693 0.0014102339 0.10536634
-0.02812955 0.0024097245 0.10510651
-0.028161002 0.0023485227 0.10583761
-0.02798667 0.0028633939 0.10565045
0.026049677 0.0027521483 0.10527223
-0.027594306 0.0035381697 0.10518874
-0.027474949 0.0040339758 0.10568459
-0.027681183 0.003765322 0.10545414
0.025892312 0.0040614433 0.10516085
0.025873138 0.0037415614 0.1056309
0.025912838 0.0033630372 0.10566734
0.025927495 0.0029994478 0.10574281
0.025952684 0.0026280561 0.10584567
-0.027097074 0.0049719103 0.1055313
-0.026918378 0.0051604505 0.10572307
-0.026766689 0.0061982661 0.1056585
0.025616366 0.0053233705 0.10505664
-0.026350737 0.0063062105 0.10580698
0.025141301 0.0067294012 0.10596558
-0.02642812 0.0073533547 0.1057572
0.024742017 0.0084032845 0.10526659
0.024724854 0.0080388896 0.10581537
-0.026046691 0.0085490923 0.10533533
-0.026182026 0.0086591579 0.10584302
0.024619149 0.0084921997 0.10569132
0.024775939 0.0078793252 0.10564131
-0.025692252 0.0098178219 0.10547282
-0.025923574 0.0099618118 0.10595671
0.0243132 0.009550469 0.10512447
0.024329212 0.0091669308 0.10566238
-0.025668364 0.010639795 0.10502888
-0.025712147 0.010918266 0.10610164
0.023433989 0.011048195 0.10599296
0.023901975 0.010230399 0.10549437
-0.025470737 0.011755772 0.10512224
0.023312492 0.011801269 0.10504173
0.023620119 0.011123183 0.10498688
-0.025478421 0.012547787 0.10518141
-0.024437595 0.014546721 0.10647687
0.021924829 0.013725773 0.10576729
0.022456115 0.012977027 0.10567996
0.023007024 0.012208976 0.10509612
-0.025088042 0.014354073 0.10525338
-0.024651898 0.014696311 0.106484
0.022422407 0.012969046 0.10557012
-0.024552185 0.013966228 0.1065214
-0.024518894 0.015554165 0.10535202
-0.02417629 0.015904151 0.10545047
-0.023564169 0.016297961 0.10593765
0.021868011 0.013814857 0.1053195
0.022525907 0.013105297 0.10483754
-0.024944667 0.014890126 0.10746605
0.017636638 0.017862117 0.10632027
0.018515039 0.017087819 0.10609522
0.021251233 0.014593985 0.10502534
-0.022676867 0.017141256 0.10591429
-0.020058446 0.018955886 0.10595131
-0.023901135 0.015999122 0.10522719
-0.021780202 0.017599888 0.10578812
-0.020184252 0.018831406 0.10578285
0.015275107 0.020078098 0.10612559
0.01620703 0.019324809 0.10578592
0.019731713 0.01600866 0.10517143
-0.025291825 0.015129089 0.10539366
-0.024624724 0.015471527 0.10519158
-0.020050356 0.01869862 0.10571679
-0.019442527 0.0192615 0.10569414
-0.018179035 0.019995866 0.106182
-0.017034492 0.020779952 0.10638589
0.013958399 0.020997671 0.10677162
0.019072808 0.016575994 0.10487532
-0.024092626 0.016062194 0.1047314
-0.023146007 0.016576475 0.10485182
-0.022343004 0.017075522 0.10491952
-0.021568432 0.017613085 0.10514437
-0.020825684 0.018149266 0.10543906
0.01638612 0.018607223 0.10533696
0.017172437 0.018395409 0.1044841
-0.018263832 0.02008361 0.10508436
-0.013528717 0.02264275 0.10614022
-0.01768758 0.020365208 0.10503354
-0.015027676 0.021845844 0.10596718
-0.012113839 0.023238162 0.10550726
0.0080074137 0.022908295 0.10582812
0.009373608 0.022906767 0.10595422
0.010799778 0.022850936 0.10614032
0.012103378 0.022426261 0.10625099
0.015416173 0.019662447 0.10466891
-0.017169651 0.020652004 0.10499664
-0.015250346 0.021814363 0.10495136
-0.013846627 0.022461828 0.10537951
-0.012772252 0.022895252 0.10563166
