# .PCD v0.7 - Point Cloud Data file format
VERSION 0.7
FIELDS x y z
SIZE 4 4 4
TYPE F F F
COUNT 1 1 1
WIDTH 1258
HEIGHT 1
VIEWPOINT 0 0 0 1 0 0 0
POINTS 1258
DATA ascii
0.0080605932 -0.026611445 0.02784753
0.006156493 0.024291527 0.027850471
0.0074504619 0.023911066 0.027936062
-0.00090069644 -0.028106019 0.028861182
-0.0021958747 -0.028198835 0.028958557
0.0010966064 -0.0278697 0.02817966
0.0023980669 -0.027667919 0.028081575
0.0065122014 -0.026873549 0.028697584
0.0077010072 -0.026680401 0.028606398
-0.010047087 -0.027691364 0.027982244
0.0040762643 -0.027407164 0.028872814
0.0053081838 -0.027128749 0.028788358
-0.013422946 -0.028124845 0.028274205
-0.011646098 -0.028005213 0.028047668
0.011661093 0.023795692 0.028245805
0.00882011 0.023746263 0.028057477
0.010235941 0.023766333 0.028153112
-0.0060754321 0.026961872 0.028216785
-0.0046991073 0.026865099 0.02833827
-0.0033305672 0.026512342 0.028450245
-0.0019845983 0.026167458 0.028557844
-0.0061584283 -0.027634725 0.029323597
-0.00484611 -0.027794924 0.029208096
-0.0035141786 -0.028160796 0.029070182
-0.00064685481 -0.028286859 0.02976512
0.00065570051 -0.028111994 0.029670831
-0.011802723 -0.028470568 0.029688198
-0.010225398 -0.028075242 0.029565025
-0.0088203326 -0.027700657 0.029491188
-0.0074842651 -0.027609609 0.029412547
0.0070255622 -0.026877657 0.029578144
0.008235136 -0.026676703 0.029491939
-0.013795941 -0.028213372 0.029275637
0.010332924 0.023961976 0.029108865
0.01174713 0.023920137 0.029184144
-0.0062042563 0.027036231 0.029900027
-0.0048016864 0.026927225 0.03001707
-0.0133174 -0.027536202 0.03102853
-0.013930751 -0.028358523 0.029806867
-0.013780693 -0.028212141 0.030485408
-0.013983339 -0.028203813 0.030477736
-0.0047716838 -0.028061382 0.030832555
-0.0034536738 -0.028285777 0.030723983
-0.0021323666 -0.028413737 0.030618984
-0.00082005089 -0.028427904 0.030517705
0.0047228774 -0.027352728 0.030301495
-0.0060952129 -0.028013762 0.030927118
0.00098201737 -0.028258445 0.030554382
0.0022827177 -0.028002482 0.030467395
0.0035218191 -0.027674545 0.030382197
-0.011976759 -0.028718928 0.030715872
-0.010219372 -0.028506326 0.030487239
-0.0086951237 -0.028113494 0.030312471
-0.0073335147 -0.028045284 0.030211505
-0.013640661 -0.028370842 0.030948266
0.0073064696 0.023648357 0.030327445
0.0087151416 0.023746826 0.030434448
0.0046618506 0.024453031 0.030088915
0.0059591043 0.024000065 0.030200461
-0.0065372637 0.0270753 0.030883467
-0.0050199861 0.026966015 0.030995794
-0.0020639079 0.026072474 0.030235192
-0.0034164141 0.026438557 0.030122433
-0.013785917 -0.028546814 0.031031685
-0.012305418 -0.027651204 0.031793512
-0.013829868 -0.02828137 0.030778121
-0.013166708 -0.028446151 0.031316712
-0.013296119 -0.028511267 0.031426314
-0.0011849918 -0.028511038 0.032041885
0.00076506939 -0.028366754 0.031311098
0.0020443292 -0.028148763 0.031221496
-0.0088267624 -0.028375193 0.031122062
-0.007433434 -0.028109258 0.031020962
-0.00056753983 -0.028522138 0.031405084
0.0048827501 -0.027503228 0.031949416
0.0051536015 -0.027343869 0.031185156
0.0063609472 -0.027085552 0.031113653
-0.0072875568 -0.028453102 0.031935807
-0.0059275888 -0.028384419 0.031809565
0.0039384458 -0.027724398 0.031266242
0.0080541614 -0.026889913 0.031886294
-0.012184071 -0.028762938 0.031849414
-0.010397242 -0.028862573 0.031548645
0.010068614 0.023906847 0.031387638
0.0059289346 0.024084896 0.031862151
0.0072788224 0.023917902 0.031977274
0.0032671802 0.024793737 0.031638429
0.0046318402 0.02449297 0.031746689
-0.0035600234 0.02660154 0.031096671
-0.013191015 -0.028450789 0.032341845
-0.01343122 -0.028469101 0.031580079
-0.012365249 -0.028531801 0.03207567
-0.0051625143 -0.02795524 0.032363724
-0.0038247861 -0.028167529 0.032265417
-0.0025057693 -0.028351001 0.032151833
-0.00091553951 -0.02858161 0.032920539
0.0010821432 -0.028425969 0.032195669
0.0024122319 -0.028193349 0.032105546
0.003674495 -0.027888935 0.032020159
0.0065316451 -0.027260309 0.032734971
-0.010393049 -0.028865363 0.032387562
-0.0087834345 -0.028757544 0.032130778
0.0040577571 -0.027837345 0.032878235
0.0053113941 -0.027542822 0.032807618
0.0068451874 -0.027126027 0.031957269
-0.012074349 -0.028699897 0.032673389
-0.012314938 -0.028609553 0.032801438
-0.013457655 -0.028532606 0.032091387
-0.012782832 -0.028500581 0.032503031
-0.011536273 -0.028484439 0.032999031
-0.0061713378 -0.028355606 0.033335701
-0.0048543313 -0.028312184 0.033226103
-0.0035396698 -0.028425043 0.033124033
-0.0022227317 -0.02854293 0.033022914
0.00065198878 -0.02855687 0.033710539
0.0019299386 -0.02837106 0.033618324
-0.0089258021 -0.02871261 0.033653222
-0.0075155888 -0.028517766 0.033475891
0.0082586436 -0.027119191 0.033473823
-0.010504368 -0.028858162 0.033468645
-0.012280088 -0.02854678 0.033813395
-0.0064413939 0.027015068 0.033260345
-0.0066701383 0.026881607 0.032810099
-0.0124041 -0.028826065 0.03275105
-0.011234061 -0.028566219 0.033461113
-0.013041177 -0.028505169 0.032710534
-0.011988799 -0.028479265 0.033221032
-0.010641705 -0.028401671 0.03368834
-0.012087072 -0.028409034 0.033807095
0.0035260406 -0.028056649 0.034418892
0.0047638742 -0.02776039 0.034372382
-0.0074101519 -0.028733179 0.034503624
0.00094360393 -0.028525794 0.034611534
0.0022456043 -0.028277799 0.034500428
-0.010432236 -0.028639913 0.034981124
-0.008866244 -0.02872174 0.034753822
0.025928237 -0.021686621 0.034684449
-0.0064508026 0.026737478 0.034464844
-0.0059896028 0.026626032 0.033720069
-0.011301249 -0.028985444 0.033046324
-0.010069468 -0.028441189 0.033867255
-0.0096244318 -0.02822916 0.034423169
-0.012531248 -0.028381944 0.03356855
-0.01103382 -0.028380621 0.033963162
-0.011150107 -0.028252656 0.034645833
-0.0095843775 -0.028284822 0.035127483
0.0015714223 -0.028344136 0.03517855
-0.011454524 -0.028147057 0.035227869
-0.0098115439 -0.028259622 0.035644569
-0.0036207691 -0.02843627 0.035485331
-0.0023056963 -0.028553305 0.035397377
-0.0010214593 -0.028561248 0.035300851
0.00030747498 -0.028514132 0.035227135
0.0018421285 -0.028352944 0.036052395
-0.0089002326 -0.028322382 0.035970755
-0.0075560189 -0.028356267 0.035821382
-0.0062322128 -0.028344152 0.035687368
-0.0049226144 -0.028352467 0.035582393
0.003873107 -0.028038058 0.035254825
0.0051620682 -0.027853701 0.035174511
0.0064053903 -0.027623996 0.035123359
0.007620356 -0.027420765 0.035081819
0.0081636533 -0.027667578 0.035826158
-0.010468349 -0.028378058 0.03607481
0.024815846 -0.022402884 0.03576621
-0.0022571394 0.02612338 0.035947766
-0.0008121024 0.025885196 0.03506998
0.0005627902 0.025824705 0.03519702
-0.0057096384 0.026395507 0.035231683
0.0034153026 -0.028073361 0.036948908
-0.011796013 -0.028239043 0.034402858
-0.010126822 -0.028180355 0.034657177
0.0034949451 -0.028091514 0.036578793
-0.010121433 -0.028076446 0.0355753
-0.010429474 -0.027945248 0.036156639
-0.00090709928 -0.028404804 0.036952078
-0.0033937544 -0.028453244 0.036428805
-0.0020745029 -0.028523063 0.036314189
-0.000758846 -0.028551998 0.036207549
0.00055191072 -0.028470375 0.036120225
0.0021116587 -0.028400287 0.036898006
0.0034034487 -0.02825032 0.03682217
0.0046670935 -0.028090797 0.036771707
-0.010848582 -0.027805943 0.036681794
-0.0088200904 -0.028171891 0.037038438
-0.0074292943 -0.028294018 0.036855992
-0.0060597849 -0.028348645 0.036697634
-0.010212484 -0.027889442 0.037193153
0.0071872845 0.024135049 0.036739845
-0.00089150807 0.025975591 0.036057733
0.0018615184 0.02579858 0.036978196
0.00049358961 0.02582288 0.036853801
-0.0094135804 -0.027758099 0.037116885
-0.0022242954 -0.028426139 0.037032239
-0.0074678306 -0.028087767 0.037469879
-0.0061479295 -0.028162889 0.037344743
-0.0048345434 -0.028234942 0.037234239
-0.003529398 -0.028333535 0.037133433
-0.0020083038 -0.028395655 0.037970491
-0.00068404269 -0.028375324 0.037857376
0.00063079037 -0.028432962 0.037758641
0.0019287574 -0.028420234 0.03767335
0.0063128998 -0.028193297 0.037481152
0.0075616664 -0.028087905 0.03742256
-0.0087835658 -0.027895767 0.037586469
0.00078701903 -0.028444489 0.036993686
0.003710496 -0.028356878 0.037643209
0.0050227833 -0.028263653 0.037555698
-0.010248986 -0.027614197 0.038090773
0.0032376461 0.025776189 0.03709726
0.0045599355 0.025347391 0.037206344
0.0059170574 0.024653504 0.037305593
0.0034931693 -0.028442545 0.038430616
-0.0073867482 -0.028076772 0.038513049
-0.006016619 -0.028210185 0.038366485
-0.0046693524 -0.028292507 0.038225506
-0.0033147114 -0.028357418 0.038213283
-0.0018406888 -0.028318606 0.038907971
-0.00051806145 -0.028352311 0.038758744
0.00083981623 -0.028442089 0.038642161
0.0021768075 -0.028457209 0.038531434
0.0080623711 -0.028288368 0.038189407
-0.010060857 -0.027419509 0.038781233
-0.0087369084 -0.02779988 0.038669161
0.0070828125 0.02431749 0.038384251
-0.0048479647 -0.027943661 0.039530847
-0.0073985825 -0.027652813 0.039708104
-0.0061269864 -0.027818996 0.039621137
0.002407928 -0.028519461 0.039393939
0.003781223 -0.028597988 0.039262731
0.0051413551 -0.02865446 0.039153602
0.0064806752 -0.028611656 0.039054658
-0.0016766225 -0.028232884 0.039852411
-0.00035161519 -0.028329892 0.039684676
0.0010390393 -0.02846536 0.039549217
-0.010058712 -0.027214384 0.03982776
0.0045029614 0.024904573 0.039533302
0.0059496565 0.024245637 0.039592244
0.00043647105 0.025639107 0.03915219
0.0018000009 0.025712742 0.039314676
0.0031482631 0.02563652 0.039444532
0.00058387616 -0.028332217 0.040154297
0.0018650104 -0.028467897 0.0400673
-0.0046778857 -0.027930345 0.040543772
-0.0033514213 -0.02798227 0.040427636
-0.0020191502 -0.028050262 0.040332872
-0.00070535613 -0.028185936 0.040243067
0.0020598241 -0.028652344 0.040921312
0.0033747507 -0.028755805 0.040815942
-0.0098447651 -0.026921945 0.040944058
-0.0085924901 -0.027311953 0.040868055
-0.0072939834 -0.027560866 0.040763389
-0.005987023 -0.027755752 0.040652931
-0.011409306 -0.026537955 0.040858652
0.00035831711 0.025353704 0.040767547
0.0017155134 0.02552882 0.040950131
0.0066213496 -0.028859092 0.041705448
0.0074504423 -0.028996265 0.042048741
0.00074348348 -0.028418753 0.041033141
0.0063683889 -0.029068964 0.041462123
0.00766285 -0.02897949 0.041377157
0.0088599743 -0.028719395 0.041305963
-0.0045488942 -0.027868479 0.041514412
-0.0032116803 -0.027905151 0.041387357
-0.0018934264 -0.027980756 0.041262057
-0.0005704225 -0.028161593 0.041147098
0.0036173335 -0.028924858 0.041677933
0.0050053056 -0.02904913 0.041563321
-0.011043615 -0.02644969 0.041003268
-0.0098599074 -0.02680845 0.041989285
-0.00855882 -0.027187245 0.041888144
-0.0072372505 -0.027497418 0.04177225
-0.005894416 -0.027732832 0.041641727
-0.0011553591 0.024983864 0.04164312
0.0030548312 0.025449513 0.041085694
0.0043936544 0.024724813 0.041166741
0.0058000865 0.024154034 0.04111141
0.0071010822 0.023914052 0.041147884
0.0058453688 -0.029076299 0.042503364
0.0066511668 -0.029169664 0.042898603
-0.0032727132 -0.027810985 0.042083837
0.002108372 -0.02876108 0.042557999
0.0034379181 -0.028977059 0.042449556
0.0047728275 -0.029128745 0.04233966
0.006093848 -0.029193798 0.042236023
-0.0084915515 -0.02701138 0.042507205
-0.0072101434 -0.027313041 0.042408593
-0.0059122615 -0.027557191 0.042303033
-0.004607216 -0.027764013 0.042194583
-0.001860588 -0.027960533 0.042897481
-0.00054104248 -0.028210035 0.042787313
0.00078220852 -0.028542724 0.042675655
-0.0097338874 -0.026607405 0.042587057
-0.012284983 -0.025761962 0.04212879
-0.011088374 -0.026295491 0.042060599
0.0029221866 0.025239181 0.043014299
-0.0013397135 0.024936445 0.042670529
0.002959003 0.025299193 0.042058107
0.0042483918 0.024720619 0.042155284
0.0055739554 0.024317393 0.042248078
0.0069137365 0.024082448 0.042315587
0.0082834801 0.024144154 0.042482227
0.0050915899 -0.029148581 0.043378524
0.0057671638 -0.029263867 0.043843687
0.0059169107 -0.029282004 0.043710664
0.0078160428 -0.02911726 0.043033395
-0.003187645 -0.027812783 0.043014608
0.002326282 -0.028927421 0.043469343
0.0037153813 -0.029136162 0.043369312
0.0051177237 -0.029263485 0.043267872
0.0065074596 -0.029254479 0.043131102
-0.0044898889 -0.0277275 0.043154184
-0.013393881 -0.025040163 0.043858521
-0.012230494 -0.025603984 0.04377934
-0.011004552 -0.026069073 0.043697912
-0.014732234 -0.024522014 0.043275759
-0.0042927554 0.024836607 0.043446895
-0.0029353579 0.02486434 0.043558244
0.0041917656 0.024751265 0.043144982
0.0054783882 0.024317713 0.04327568
0.0068615559 0.024193449 0.043434352
0.0082874754 0.024242813 0.043575928
0.0097219311 0.024278305 0.043753944
0.00036972147 0.025185466 0.043198101
0.0016747648 0.025278296 0.043338597
0.0043376065 -0.029211247 0.044415854
0.0048147505 -0.029282173 0.044873234
-0.00070232735 -0.028255524 0.044240609
0.00055744877 -0.028557897 0.044137623
0.001833364 -0.028819932 0.04403194
0.0046412684 -0.02930443 0.04472464
0.0059332694 -0.029315762 0.044616595
-0.0058946321 -0.027432742 0.044645142
-0.004580548 -0.027622361 0.044554323
-0.0032657885 -0.027788831 0.04445472
-0.0019796137 -0.028017825 0.044351779
0.002010525 -0.028963592 0.044943415
0.0033285252 -0.029161423 0.044835012
-0.0096419202 -0.026465639 0.044934232
-0.0084138373 -0.02684271 0.044839904
-0.0071661728 -0.027170412 0.04474698
-0.0148153 -0.024633795 0.044929035
-0.016179467 -0.024023283 0.044331927
0.0083559938 0.024290359 0.044584952
0.0099156369 0.024379803 0.04483854
-0.0059555327 0.024871631 0.044344928
-0.0013398759 0.025076309 0.044990309
0.00019125195 0.025172638 0.04414786
0.001534516 0.02526103 0.044277918
0.0034753641 -0.029175939 0.04530783
0.0039643547 -0.029205387 0.045888741
0.00057958625 -0.028772851 0.045769408
-0.0071662962 -0.027144497 0.045428485
-0.0059075477 -0.027414313 0.045343872
-0.0019706355 -0.028160872 0.045984216
-0.00062338356 -0.028451337 0.045213599
0.00069430249 -0.028747939 0.045051936
0.0049486272 -0.029300215 0.045638174
0.0062926216 -0.029227704 0.045536112
0.0075657959 -0.029023256 0.045427673
-0.010854671 -0.026077654 0.045033988
-0.0045214593 -0.027651543 0.045485877
-0.0032210504 -0.027879335 0.045375492
-0.001920615 -0.028152796 0.045267057
0.0022254135 -0.029120684 0.045871522
0.0035912707 -0.029257398 0.045746226
-0.012025131 -0.025578145 0.045129422
-0.0096826535 -0.026490347 0.045916975
-0.0084110992 -0.026844328 0.045813508
-0.015994281 -0.024120662 0.045020621
0.0067016874 0.02372025 0.045669243
-0.0042524659 0.024678756 0.045704551
0.0028047871 0.025079839 0.045346648
0.0040925499 0.024532991 0.045454577
0.0053643612 0.023962326 0.045555107
0.0031646173 -0.029195592 0.046928745
0.0061610588 -0.029162707 0.046135735
-0.0045484598 -0.027658438 0.046197888
-0.0032485176 -0.027883194 0.046091113
0.0007263592 -0.028894048 0.046702139
0.0020630567 -0.029118359 0.046585511
0.0033961646 -0.029251728 0.046473779
-0.0083868746 -0.026810069 0.046514247
-0.00712873 -0.027149199 0.046406072
-0.0058541899 -0.027450513 0.046302862
-0.0019105619 -0.028305368 0.046918876
-0.00059625536 -0.028632702 0.046816397
-0.010917309 -0.026052326 0.046016924
-0.0044683968 -0.027746007 0.046413381
-0.01452414 -0.024746053 0.046329584
-0.013351815 -0.025189528 0.046221845
-0.012139747 -0.0256157 0.046118692
0.0067346548 0.024031777 0.046617925
0.0082947696 0.024523461 0.046805017
0.0098693334 0.024619969 0.047063116
-0.0072453259 0.024677129 0.046446856
-0.0058926172 0.024737151 0.046532404
0.0053601004 0.024066856 0.04649438
0.00018554858 0.025351934 0.046507131
0.0014861455 0.025310619 0.046619024
0.0023559139 -0.028999887 0.047827616
0.0053006532 -0.029169751 0.047060184
0.0076918984 -0.028640294 0.047340907
0.0063767741 -0.029042801 0.047197547
0.0076217339 -0.02874846 0.047077931
-0.0045068595 -0.027703458 0.047128245
-0.003209227 -0.02797965 0.04702162
0.00089252484 -0.029009109 0.047657937
0.0022733142 -0.02918167 0.047554601
0.0036700917 -0.029284421 0.04741215
0.005032978 -0.029230207 0.047297411
-0.0096582808 -0.026456214 0.047555771
-0.0083774012 -0.026787538 0.04745299
-0.0070944978 -0.027137363 0.047346842
-0.0058016228 -0.027462885 0.04724082
-0.0031423392 -0.028051877 0.047973324
-0.0018205785 -0.028409161 0.047881193
-0.00047512728 -0.028737567 0.047775555
-0.014572773 -0.024812914 0.047971781
-0.013378538 -0.025243064 0.047870968
-0.012160383 -0.025673792 0.047766026
-0.010922304 -0.026088286 0.047661398
-0.015902407 -0.024293542 0.047371175
-0.014699895 -0.024736824 0.047266543
0.0026872673 0.024869654 0.047675803
0.0039625 0.024256838 0.04778653
-0.0026722846 0.02502127 0.047223236
-0.0013341366 0.025326205 0.047335193
0.011558166 0.024897847 0.045904923
0.0043211887 -0.029138526 0.048043698
0.0044330168 -0.029139649 0.048033733
-0.00074904796 -0.0285742 0.048215646
0.00051584066 -0.028866313 0.048112851
0.0017873643 -0.029074701 0.048002534
0.0032803577 -0.029165009 0.048832018
0.0068021268 -0.028715592 0.048314925
-0.0070867995 -0.027048724 0.048780747
-0.0058300486 -0.027330857 0.048668068
-0.0045500644 -0.027637279 0.048545334
-0.0032795034 -0.027948491 0.048436262
-0.0020069885 -0.028233811 0.048331637
0.0019680131 -0.029085619 0.048944484
0.0067832866 -0.028844072 0.048160452
-0.0044328477 -0.027744742 0.04807891
-0.010983872 -0.026097436 0.048589598
-0.0096809249 -0.02645115 0.048488412
-0.0083706053 -0.026786815 0.048388209
-0.014779005 -0.024849707 0.048915561
-0.013535361 -0.025291219 0.048807256
-0.012269833 -0.025709458 0.048688784
9.4463016e-05 0.025560295 0.048156109
0.0014096207 0.025427997 0.048263971
0.0035434375 -0.029100545 0.049016498
0.0035140824 -0.029076753 0.048981175
0.00056647166 -0.028783733 0.04973755
0.0018436473 -0.028976802 0.049629565
0.0058985283 -0.028764755 0.049291022
-0.0019805287 -0.028234974 0.049953055
-0.0019366012 -0.028327165 0.049265523
-0.00065373437 -0.028616104 0.04924012
0.00065690489 -0.028857667 0.049052816
0.0048584365 -0.028936354 0.049667701
0.0061352979 -0.028724367 0.049533106
-0.0070610298 -0.027066657 0.049688391
-0.0057824915 -0.027376989 0.04957933
-0.0045003388 -0.027676562 0.049473532
-0.0032221724 -0.028003035 0.049369927
-0.0083296634 -0.026736708 0.049802482
-0.015967008 -0.024358524 0.049016014
-0.017001018 -0.023945274 0.049624085
0.0081794094 0.024508409 0.04918427
0.0026472805 0.024991821 0.049316265
0.0039248993 0.024464574 0.04942536
0.005211127 0.023953838 0.049518704
0.0065946542 0.02406502 0.049651805
0.0046322164 -0.028906459 0.050343979
0.0053239777 -0.028769068 0.050606702
0.0065701273 -0.028562134 0.049953688
-0.0058046849 -0.027342211 0.050328992
-0.0045377472 -0.027618002 0.050209034
-0.0032493672 -0.02788485 0.050079484
-0.00059185486 -0.028533444 0.05080102
0.00071345188 -0.028748058 0.050694767
0.0020299728 -0.028940722 0.050583635
0.0033439442 -0.028976493 0.050467052
-0.003169074 -0.027929515 0.050996412
-0.0018869549 -0.028259544 0.050901257
0.0065207356 -0.028584594 0.050485246
-0.012059027 -0.025690962 0.050134107
-0.010828035 -0.026037719 0.050031628
-0.0070389672 -0.027144959 0.05057656
-0.015581776 -0.024417723 0.050402176
-0.015460251 -0.024505274 0.050439149
-0.014444323 -0.024879467 0.050319895
-0.013268368 -0.025313389 0.050231438
-0.010927003 -0.026094032 0.050893921
-0.0096464576 -0.026483579 0.050780296
-0.0083390111 -0.026804835 0.0506678
-0.016125662 -0.024263302 0.05064084
0.0052445605 0.024215406 0.05052438
0.0066597988 0.024277186 0.050680511
-0.0039015198 0.025204036 0.050340049
0.001322676 0.025388092 0.050602723
-0.0025743223 0.025504699 0.051208537
0.0030377035 -0.02880284 0.051818989
0.0049323575 -0.028804755 0.051292647
0.006204484 -0.028565807 0.051165953
-0.0057553998 -0.027430404 0.051195234
-0.0044650207 -0.027709311 0.051093943
0.0035976656 -0.028896565 0.051419623
0.0078199133 -0.028128671 0.051974192
-0.010860384 -0.026147492 0.051641326
-0.0083480431 -0.02688597 0.051408201
-0.0070454227 -0.027135549 0.051299717
-0.014465821 -0.02484132 0.051858928
-0.013361728 -0.025326116 0.051496513
-0.012102125 -0.025768239 0.051691234
-0.01463295 -0.024857925 0.051247727
-0.01526768 -0.024606928 0.051646736
0.0038276713 0.024433587 0.051747918
0.0025515251 0.024916248 0.051647492
-0.0039798301 0.025572762 0.051934432
-0.0027013551 0.025616014 0.052003369
-0.0012496635 0.025670258 0.05124519
-1.161173e-05 0.025596077 0.051272299
-0.0020362467 -0.028062813 0.052300286
-0.00076962606 -0.028261224 0.052188024
0.00051039021 -0.028526427 0.052052319
0.0017940281 -0.028725838 0.051926699
0.003243803 -0.028727448 0.052782215
0.004484952 -0.028725004 0.052669697
-0.0059046289 -0.027541498 0.052670091
-0.0046159588 -0.027634129 0.052559432
-0.0032986549 -0.027880091 0.052423213
0.0019656969 -0.028674012 0.05289254
0.0065872227 -0.02848741 0.052103098
0.0073219677 -0.028228667 0.052232575
0.0076610548 -0.028211579 0.052173175
-0.012290921 -0.02585824 0.052650683
-0.011016998 -0.026281754 0.052512724
-0.0097092176 -0.026701016 0.052390534
-0.0083788838 -0.027051914 0.052265309
-0.0070307488 -0.027322493 0.052182484
-0.013504301 -0.025378179 0.052772939
0.0038376017 0.02449894 0.052700043
0.0051696482 0.024296368 0.05282547
-0.0041899732 0.025787508 0.052703422
-0.0028456529 0.025796017 0.052789718
0.0012223049 0.025240399 0.052250266
-0.0013902881 0.025660792 0.052084442
-7.1309005e-05 0.025571292 0.052157409
-0.0032048307 -0.0279635 0.053336702
-0.0019065324 -0.02809847 0.053225473
-0.00061846222 -0.028288182 0.053115699
0.00067899207 -0.028442468 0.053000614
0.0021385669 -0.028608147 0.053845335
0.0034651801 -0.028720079 0.053726278
0.0047648712 -0.028674079 0.053607639
0.0060153883 -0.028524846 0.053492125
-0.0084233107 -0.027323244 0.053763229
-0.0071216109 -0.02755663 0.053658023
-0.0058093346 -0.027695725 0.053552922
-0.0045010219 -0.02778353 0.053446118
0.00083773537 -0.028410906 0.053954925
0.0063750427 -0.028460624 0.053211655
-0.010883595 -0.026466753 0.053987447
-0.0096956696 -0.026983466 0.053872142
-0.0044732187 0.026077254 0.053477243
-0.0030335248 0.025990481 0.053580571
0.0011779185 0.025179243 0.053156964
0.0024670437 0.024781428 0.053277001
-0.0069789882 -0.027444338 0.055608649
-0.00055868906 -0.028137404 0.054742578
0.00073496177 -0.028285448 0.054632008
0.0020289053 -0.028473711 0.054522101
0.0033054424 -0.028661486 0.054416653
0.0076042404 -0.028229734 0.054295775
0.008718946 -0.02784444 0.054200083
-0.0031548606 -0.027916644 0.054965947
-0.0030705514 -0.027974522 0.054270037
-0.0017613893 -0.02809242 0.054164734
-0.00045492075 -0.028237354 0.054060061
0.0063775866 -0.028538605 0.054410301
-0.012031324 -0.025956683 0.054094657
-0.0084417379 -0.027490143 0.054659277
-0.0070634615 -0.027714258 0.054564927
-0.0057018707 -0.027838258 0.054471478
-0.0043767495 -0.027889641 0.054374173
-0.011061745 -0.02661524 0.05489162
-0.0097907661 -0.027127825 0.054766387
0.0024894562 0.024756925 0.054172114
-0.0014364196 0.025802936 0.054429211
-0.00022766068 0.025458803 0.054539889
-0.0069444817 -0.02760902 0.055844743
0.0044950061 -0.028540298 0.05551764
0.0043857438 -0.028583629 0.055411365
0.0043297843 -0.028623821 0.055296794
-0.010400306 -0.026879031 0.055809479
0.0035065464 -0.028683938 0.055348624
0.0048257764 -0.028747063 0.055231437
0.0061144358 -0.028639384 0.055119488
-0.0071142414 -0.027783806 0.055290751
-0.0057788175 -0.027855141 0.055187862
-0.0044597262 -0.027869198 0.055076092
-0.0016929738 -0.027964098 0.055798508
-0.00039420906 -0.028052265 0.055686377
0.00089814659 -0.028216587 0.055571523
0.0021944125 -0.02846854 0.055467583
0.0077361609 -0.0284178 0.055908971
-0.0097628357 -0.027220774 0.055497348
-0.0084552821 -0.027578196 0.055388346
-0.0043189037 -0.027898587 0.056015022
-0.0030047621 -0.027875843 0.055905204
-0.001613376 -0.027991997 0.055104315
-0.0044619846 0.02647833 0.055814978
-0.0015071622 0.025861381 0.055263691
-0.0002047563 0.025529979 0.055383176
0.0010516546 0.025059115 0.055502091
-0.010158694 -0.02696551 0.056810565
-0.011112448 -0.026477575 0.056972131
0.0037236186 -0.028682891 0.056280248
0.0050797677 -0.028776065 0.056155566
0.0064604888 -0.028695822 0.056016378
-0.0070216036 -0.027869301 0.056227174
-0.0056460812 -0.027927579 0.056119673
-0.0015407325 -0.027838822 0.056754537
-0.00024414712 -0.027951114 0.056638844
0.0010510295 -0.028147647 0.056526437
0.0023838105 -0.028440803 0.056416195
0.0081857517 -0.028471537 0.056771256
-0.011131318 -0.026767036 0.056539848
-0.0098345298 -0.027323928 0.05643094
-0.0084314831 -0.027680654 0.056323152
-0.0029142741 0.026391676 0.056724168
-0.0015582053 0.026032319 0.0568619
-0.0078060748 -0.027915305 0.057358153
0.004442052 -0.028572652 0.057133567
-0.0095063401 -0.027374428 0.057711478
-0.0084419157 -0.027999366 0.057490967
-0.0073251165 -0.02793082 0.057689954
-0.010324148 -0.027071763 0.057796594
-0.0086620003 -0.027777048 0.057497684
-0.0072268881 -0.027910272 0.057811987
-0.010822902 -0.026770564 0.057945751
0.0059735561 -0.028788036 0.057457987
-0.004499584 -0.027741186 0.057389129
0.00086185639 -0.027917808 0.057874974
0.0021428899 -0.028173646 0.057771407
0.0034153399 -0.028495969 0.0576679
0.0046964004 -0.02873455 0.057562124
-0.0097356448 -0.027359657 0.057837341
-0.0084480327 -0.027672013 0.057734396
-0.0071320296 -0.027824089 0.057628863
-0.0058141602 -0.027831608 0.057512954
-0.00042889849 -0.027755283 0.057984971
-0.010929964 -0.026833385 0.057938501
-0.0016497041 0.026181445 0.057746872
-0.00027349353 0.02565969 0.057906326
-0.00025668051 0.025530383 0.056995746
-0.0065775705 -0.027685508 0.058494762
-0.0064309151 -0.027750555 0.058753543
0.0055927713 -0.028841965 0.058498885
-0.010112583 -0.027215896 0.058936208
-0.0080985073 -0.027739923 0.058646869
0.0062427819 -0.028853631 0.058336601
0.0075576701 -0.028710386 0.058231391
-0.0043343171 -0.027685216 0.058338586
-0.0030260605 -0.027603885 0.058219668
-0.0017232533 -0.027630527 0.058098119
0.001008058 -0.027875289 0.058813699
0.0022896263 -0.028263452 0.05870527
0.0035891326 -0.028562736 0.058590278
0.0049122982 -0.028798167 0.058466073
-0.0097448211 -0.027344193 0.05876049
-0.0083891544 -0.027660245 0.058663372
-0.007007157 -0.027797859 0.058563516
-0.0056585679 -0.02777845 0.058455352
-0.00027441792 -0.027616961 0.058932278
-0.011009233 -0.026763696 0.058868002
-0.0042612269 0.026761506 0.058979791
-0.0056134579 -0.027404923 0.059681375
0.0069525973 -0.028991228 0.05970975
-0.0072209025 -0.027699482 0.059620429
0.0033550635 -0.028415712 0.060008675
0.0045988122 -0.028799256 0.059904061
0.0058581694 -0.029001191 0.059802912
0.002186269 -0.028131129 0.059393898
0.0060360027 -0.028962854 0.059068117
0.007371176 -0.028967289 0.059684362
-0.0084013715 -0.027628109 0.059352435
-0.00706978 -0.027737694 0.059246022
-0.0057479162 -0.027687537 0.05913239
-0.0044393572 -0.02756311 0.059010632
-0.002953128 -0.027361805 0.059830744
-0.0016529661 -0.027379066 0.059712347
-0.00036163558 -0.027532334 0.059601918
0.00091708655 -0.027788276 0.059497241
0.007995775 -0.028803557 0.059104469
-0.010905615 -0.026762629 0.059557647
-0.0097042564 -0.027320722 0.059454266
-0.0042568808 -0.027483532 0.05995094
-0.0028532797 -0.027453786 0.059168387
-0.0015569392 -0.027502479 0.059057128
-0.00012238928 -0.02752734 0.059883218
-0.0029060815 0.026507001 0.059094045
0.0061461818 -0.02918575 0.061473019
0.0060995528 -0.029129971 0.06109906
-0.0055650319 -0.027477464 0.05991248
-0.0017345444 -0.027281038 0.060375813
-0.00044826008 -0.027436079 0.060264975
0.00083620998 -0.027699277 0.06017777
0.0021027578 -0.028038852 0.060097836
0.0034910911 -0.028519757 0.06089649
0.004788965 -0.028909767 0.060780659
0.0060993698 -0.029138088 0.060673356
0.007400319 -0.029059641 0.060570013
-0.0070014852 -0.027586035 0.060870633
-0.005677335 -0.027513202 0.060751501
-0.0043746158 -0.027388416 0.060625449
-0.0030665493 -0.027289528 0.060498443
-0.0083363624 -0.027514745 0.060870085
-0.0069315224 -0.027681995 0.060179837
-0.0055774772 -0.027599568 0.060065422
-0.0027714274 -0.027302636 0.060768764
-0.001499521 -0.027288707 0.060657475
-0.014358515 -0.024781242 0.060811091
-0.01320333 -0.025322435 0.060669176
-0.012092271 -0.02601126 0.060542297
-0.0015945227 0.026068326 0.060609434
0.0066670035 -0.029222565 0.061498083
-0.0015947913 -0.027246078 0.061330985
-0.00030658842 -0.027396696 0.061219893
0.00096494367 -0.027693944 0.061116289
0.0022258367 -0.028057927 0.061009664
0.0064040627 -0.029224655 0.061564807
0.0077918745 -0.029061044 0.061445504
-0.011983383 -0.025968472 0.061286256
-0.010857978 -0.026671102 0.061164834
-0.0096397949 -0.027219046 0.061068784
-0.0082287369 -0.027446663 0.061874114
-0.0068446063 -0.027483258 0.061777458
-0.0055046449 -0.02740363 0.061670765
-0.0041860924 -0.027292954 0.061561126
-0.0028861132 -0.027240958 0.061446112
-0.0013269384 -0.027267681 0.061584175
-9.5100149e-05 -0.027425284 0.06147838
-0.014573936 -0.02495482 0.061585627
-0.015883582 -0.024400242 0.061126757
-0.0050372994 0.026384443 0.061557274
-0.0039591854 0.026454197 0.061137151
0.0060473271 -0.029276807 0.062884204
0.0059739579 -0.029261997 0.062625803
0.0033069374 -0.028402064 0.062338866
0.0045036501 -0.028910959 0.062232062
-0.0044420543 -0.027202263 0.062949292
-0.003143386 -0.027174968 0.062830999
-0.0017744662 -0.027130576 0.062688418
-0.0027087908 -0.027254034 0.062372021
-0.001443815 -0.027249169 0.062258109
-0.00018391784 -0.027409498 0.062155295
0.0010687896 -0.027734963 0.062042806
-0.013240282 -0.02544779 0.062256519
-0.012098 -0.026045792 0.062137634
-0.0053270557 -0.027339453 0.062573783
-0.0040195859 -0.027280577 0.06247285
-0.01444856 -0.025000414 0.062370159
-0.0011371786 -0.027269082 0.06249417
-0.0160551 -0.024713393 0.062404338
-0.0042577083 0.026436945 0.062167175
-0.0028713956 0.026357463 0.062128372
-0.0016542176 0.026096018 0.062242124
-0.00040730648 0.025803907 0.062342167
0.0070772362 -0.029314749 0.063706793
0.0082430299 -0.028953949 0.06337443
0.0059670331 -0.029275719 0.063006967
0.00093303836 -0.027617568 0.063424714
0.0021795176 -0.028038232 0.063327715
0.0034103594 -0.028558206 0.063222535
0.0046731601 -0.029047107 0.063114963
0.006263535 -0.029311676 0.063914694
0.0075982977 -0.029215628 0.063799091
-0.0095626051 -0.027006915 0.063385606
-0.008300744 -0.027271528 0.063278064
-0.0070127947 -0.027314316 0.063169427
-0.0057266303 -0.027275028 0.063055456
-0.0042490656 -0.027195659 0.063859999
-0.0029593213 -0.027165079 0.06374912
-0.0016423152 -0.027162638 0.063630521
-0.00033350219 -0.027308837 0.063523576
-0.011933968 -0.026021726 0.063617855
-0.010761485 -0.026534745 0.063498005
-0.0055449037 -0.027248558 0.063970253
-0.001242502 -0.027270328 0.063178167
-4.8193328e-05 -0.027431281 0.063077614
-0.015916348 -0.024849629 0.063181818
-0.014616902 -0.025158383 0.063152887
-0.017833784 -0.024639223 0.063158594
-0.0049403608 0.026439443 0.063758224
-0.0045526661 0.026420714 0.063828155
0.0062914323 -0.029377241 0.064952597
0.0061587668 -0.029336883 0.064729385
0.0076016532 -0.029236779 0.064296275
0.0079075163 -0.029135661 0.064213559
-0.018480642 -0.023961393 0.065823674
-0.0030995847 -0.027127616 0.064444728
-0.0017349301 -0.02709656 0.064325266
0.0021946074 -0.02811295 0.064936146
0.003432411 -0.028665898 0.064832635
0.0047189593 -0.029111505 0.064725876
-0.0082381573 -0.027145842 0.064886749
-0.0069499486 -0.027219001 0.064779125
-0.0056669652 -0.027194574 0.064665318
-0.0043850997 -0.027141923 0.064551875
0.001009899 -0.02777083 0.064355209
0.0022729384 -0.028185371 0.064248845
0.0035522401 -0.028702576 0.064135008
0.0048916959 -0.02913443 0.064015895
0.0066034654 -0.0292974 0.064825431
0.007990215 -0.029146543 0.064697258
-0.01865574 -0.024255153 0.065436102
-0.010798936 -0.026632009 0.064377144
-0.0095141251 -0.026943898 0.064946063
-0.0081716795 -0.027205477 0.064185433
-0.0068561803 -0.027275313 0.064076543
-0.0053638341 -0.027232757 0.064869806
-0.0040595937 -0.02715956 0.064763486
-0.0027657507 -0.027177438 0.064662039
-0.00024088935 -0.027400238 0.064454794
-0.01444384 -0.025274947 0.064714603
-0.013215986 -0.025665443 0.064593472
-0.012038015 -0.026193425 0.064477868
-0.001075419 -0.027288964 0.06411957
-0.017648822 -0.024898332 0.064008154
-0.016210923 -0.025114 0.063921325
0.0072211516 0.023692457 0.06485264
-0.0029667546 0.026158918 0.064391106
-0.0041383491 0.026187999 0.064301349
0.0054511847 -0.029261157 0.065620355
0.0080646547 -0.0289333 0.06560643
-0.017703971 -0.0241616 0.066875108
-0.0029017923 -0.02712659 0.065360159
-0.0016061052 -0.027141275 0.065250471
-0.00030604395 -0.02732778 0.065140292
0.00095221493 -0.027691301 0.065034896
0.0010462177 -0.027742654 0.065966338
0.0022902549 -0.028265202 0.065875463
0.0035770044 -0.028753996 0.065759726
0.0049626217 -0.029170729 0.065645553
-0.017908074 -0.024514843 0.066303156
-0.014423225 -0.025339877 0.0654919
-0.013185635 -0.025643433 0.065371834
-0.011980385 -0.026191752 0.065216929
-0.01075556 -0.026583867 0.065100208
-0.0081222272 -0.027196631 0.065781847
-0.0067927693 -0.027234677 0.065680735
-0.0054860674 -0.027196838 0.065570593
-0.0041882279 -0.027134044 0.065467641
-0.00010399536 -0.027484421 0.065391555
-0.018450407 -0.024709167 0.066010401
0.0060070246 0.023992738 0.065644383
0.0073145502 0.023753701 0.065740295
-0.0030487885 0.026149938 0.065316141
-0.0017526211 0.026088927 0.065409482
-0.00047110993 0.025889283 0.065528944
-0.005528349 0.02621053 0.065118723
-0.0043050945 0.026198452 0.065211162
-0.0017940911 0.026022848 0.065140098
-0.00056489656 0.025843434 0.065263905
0.0075520836 -0.029129891 0.066448964
-0.0083830291 -0.027023027 0.066302866
-0.0057467949 -0.027168488 0.067006052
-0.0044771219 -0.027115328 0.066890426
-0.003185425 -0.027078686 0.06676995
-0.001807629 -0.027051868 0.066649765
0.0066816243 -0.02917866 0.066502422
-0.000199225 -0.027419085 0.066064969
-0.017648054 -0.025040038 0.066907048
-0.014522946 -0.025614878 0.066256821
-0.013255884 -0.025921024 0.066154078
-0.012040645 -0.026337439 0.066056766
-0.0052910796 -0.027232189 0.066457249
-4.1742842e-05 -0.027498126 0.06700214
-0.015799837 -0.025342511 0.066361792
-0.001141779 -0.027338589 0.066443212
-0.019193044 -0.025062587 0.066687517
0.0060801981 0.024024457 0.066601008
-0.0018410122 0.026058616 0.066368602
-0.00052011857 0.025872007 0.066480264
-0.004441855 0.026272025 0.066471353
-0.0031441045 0.026148245 0.066584706
-0.0017985532 0.025983026 0.066075459
-0.00053627661 0.025790455 0.066148721
0.0069930195 -0.029180674 0.067355976
0.0072606956 -0.02906692 0.067401432
0.0046151751 -0.028997319 0.067033552
0.0075270794 -0.028984487 0.067392707
-0.018074365 -0.024595406 0.068927422
-0.0083323466 -0.027166979 0.067959607
-0.0071106954 -0.02721468 0.067858227
-0.00036705454 -0.027335761 0.067442313
0.00090959045 -0.027636331 0.06732741
0.0021441502 -0.028086331 0.06722527
0.0033702592 -0.028592976 0.067130119
0.0048102187 -0.02896337 0.067983396
-0.018363206 -0.02496863 0.06835974
-0.010753436 -0.026642337 0.067443877
-0.0095193107 -0.02696367 0.067319639
-0.0082675871 -0.027162684 0.067222558
-0.0070019807 -0.027197754 0.06711375
-0.0055566803 -0.027279245 0.067881674
-0.0042769406 -0.027199231 0.067784332
-0.01566337 -0.025253912 0.068021752
-0.014432295 -0.025386274 0.06791953
-0.013212267 -0.025727769 0.067740358
-0.011989928 -0.026221938 0.067571841
-0.006849451 -0.027310694 0.067975737
-0.00092410075 -0.027447732 0.067460485
-0.017576702 -0.025623767 0.067296132
0.0058473148 0.023948545 0.067946248
0.0071056364 0.023684718 0.067118928
0.0084089907 0.02351138 0.067232467
0.009723899 0.023385223 0.067353934
-0.004590109 0.026268151 0.067760013
-0.0032501533 0.026178427 0.067878418
-0.001925058 0.025890255 0.067977823
-0.0059080846 0.026229313 0.067632683
0.0064284885 -0.029074257 0.068266422
0.0064914199 -0.029023966 0.068316817
0.00084972609 -0.027565196 0.068004243
0.0066570006 -0.028995181 0.068336651
-0.0095592104 -0.026921438 0.068078473
-0.004431772 -0.027244108 0.068506576
-0.0031311859 -0.027132802 0.06839709
-0.0017746435 -0.027110767 0.06828396
-0.00045223333 -0.027272467 0.068136416
0.00092612626 -0.027594263 0.068932459
0.0021795656 -0.027964214 0.068825148
0.003418772 -0.028421288 0.06872905
0.0046671685 -0.02881995 0.068634599
-0.010782203 -0.026641397 0.068202198
-0.0095048295 -0.027066918 0.068917058
-0.0082402704 -0.027304491 0.068809293
-0.0069650663 -0.027346339 0.068711855
-0.0056995032 -0.027334508 0.068611786
-0.0002506139 -0.027425662 0.068359397
0.0010079755 -0.0277304 0.068261258
0.0022575087 -0.028144663 0.068169422
0.0035121059 -0.028570661 0.068078935
0.0064753257 -0.028957801 0.068878271
0.007805544 -0.028764183 0.068722352
-0.0081637232 -0.027268484 0.06807065
-0.0053508445 -0.027414873 0.06874653
-0.017296163 -0.025786007 0.068764515
-0.015893441 -0.025856676 0.068672031
-0.00067277555 -0.027479833 0.06842012
0.0058631287 0.023874998 0.068938062
0.007142989 0.023699433 0.06805221
0.0084708007 0.02356636 0.068166137
0.0096621029 0.02333256 0.068937957
-0.0034158442 0.026211984 0.068867214
0.0096234372 0.023359887 0.068014771
-0.0048162639 0.026337659 0.068741158
-0.0019326777 0.025836963 0.068285108
0.0056652566 -0.028862517 0.069132045
0.0056888652 -0.028824622 0.069201402
0.0076328935 -0.028647322 0.069466896
0.0079704896 -0.028582877 0.069578968
-0.0055018081 -0.027496841 0.069471374
-0.004218962 -0.027391488 0.069376484
-0.0029408759 -0.027236644 0.069275275
-0.0016414288 -0.027207015 0.069169462
-0.00032823943 -0.027376803 0.069235787
0.0010626576 -0.027640738 0.069865227
0.0023228943 -0.027972639 0.069772996
0.0035821565 -0.028379332 0.069694415
0.0048812553 -0.02873889 0.06960912
-0.015798356 -0.025856443 0.069469161
-0.014451371 -0.025622524 0.06942974
-0.013206802 -0.025854336 0.069318905
-0.011993405 -0.026393658 0.069154896
-0.010774744 -0.026938707 0.069273621
-0.0094628148 -0.027279926 0.069743685
-0.0081397062 -0.027447099 0.069657587
-0.0068078958 -0.02751852 0.069562107
-0.031003037 0.016233437 0.069809861
-0.026639543 0.017778734 0.070797741
0.0057694432 0.023845233 0.069567867
0.0070724296 0.023627894 0.069673613
0.0083926516 0.023467727 0.069779016
-0.0031610657 0.026059398 0.069123358
-0.0057397075 0.026478665 0.068818428
0.0069322078 -0.028621288 0.070413604
0.0048683006 -0.02851483 0.070084058
-0.0019214761 -0.027205037 0.070594601
-0.0005949983 -0.027249584 0.070460103
0.0071286391 -0.028574413 0.070511751
-0.010896578 -0.026552862 0.070609711
-0.0096216528 -0.027045913 0.070404723
-0.0070343232 -0.027530311 0.071016483
-0.0057874364 -0.02754969 0.070917197
-0.0045309518 -0.027438471 0.070821971
-0.0032297482 -0.027236525 0.070724562
0.006512214 -0.028665621 0.07050506
0.0078290813 -0.028542301 0.070350468
-0.0052869366 -0.027615963 0.070358463
-0.0039860429 -0.027474219 0.070257783
-0.0027176531 -0.027310686 0.070158601
-0.0014686302 -0.027274678 0.070064083
-2.112746e-05 -0.027400658 0.070867091
0.0012380857 -0.027632713 0.070788555
0.0025019832 -0.027960343 0.070715725
-0.016146043 -0.026367791 0.070238352
-0.014596507 -0.02621109 0.070137121
-0.013252644 -0.026296683 0.070055462
-0.012015974 -0.026682612 0.069954798
-0.0012602309 -0.027276738 0.070952639
-0.029915506 0.016876576 0.070981927
-0.0047622318 0.026116166 0.07100299
-0.0032746808 0.026004463 0.070117883
-0.0050649885 0.026356937 0.069669761
0.0060489876 -0.028487965 0.071157433
0.0061448929 -0.028406233 0.071286432
0.0062554167 -0.028404318 0.071441323
-0.0083642313 -0.027352048 0.071828425
-0.0071461266 -0.0275607 0.071721107
-0.0017462624 -0.027250009 0.071467429
-0.00045166267 -0.027293971 0.071345545
0.00082722615 -0.027457431 0.071215011
0.0020882129 -0.027708396 0.071076714
0.003515773 -0.027954414 0.071911387
0.00477116 -0.028216673 0.071798883
0.0060211248 -0.028381353 0.071679875
0.008076394 -0.028345579 0.071246207
-0.013268786 -0.026100207 0.071622238
-0.01202776 -0.026372304 0.071515866
-0.0107818 -0.026696987 0.071381822
-0.0095336847 -0.027161686 0.07123702
-0.0082419487 -0.027499352 0.071521476
-0.0068846336 -0.027641522 0.071892738
-0.005593867 -0.027640712 0.071786098
-0.0043173954 -0.027486561 0.071681432
-0.0030431245 -0.027326485 0.071578741
-0.014562494 -0.026321834 0.071674943
-0.0050657736 -0.027684264 0.071264319
-0.0037513438 -0.027516957 0.07115528
-0.0024753881 -0.027352393 0.071050979
-0.0010095558 -0.027273728 0.071868174
0.00018671145 -0.027377969 0.071780294
0.0075036385 -0.02824164 0.072378546
-0.016607247 -0.026708672 0.071172088
-0.0022324345 -0.02736225 0.071964137
0.006899822 0.023394262 0.071892314
0.0043166424 0.023911312 0.071672969
0.0056075715 0.023627264 0.071777761
-0.0037505915 0.025984155 0.070908993
-0.0040350733 0.02605149 0.070730232
-0.0044683702 0.026204078 0.070315249
0.0051146066 -0.028299801 0.071836889
0.0052232342 -0.028193163 0.072088569
0.0053067082 -0.028158069 0.072265171
-0.00059354003 -0.0272178 0.072016172
0.0053411499 -0.028160151 0.072388008
0.0069447863 -0.028257057 0.072050042
-0.0057341349 -0.027661737 0.072483003
-0.0031839765 -0.027315283 0.07226637
-0.0018889629 -0.027209619 0.072149821
-0.00042105524 -0.027238471 0.072932564
0.00084992318 -0.027320528 0.072804213
0.0022254919 -0.027645603 0.07217066
0.0054006889 -0.028164856 0.07248836
0.0073569827 -0.028175618 0.072382413
-0.010762967 -0.026899522 0.072924353
-0.0095009888 -0.027140694 0.072816022
-0.0082526999 -0.027448602 0.072698735
-0.0069943727 -0.027640123 0.072591186
-0.0028274725 -0.027342049 0.072471373
-0.0015526097 -0.027251072 0.072361082
-0.0002766223 -0.027285734 0.072250813
0.00099322305 -0.027427148 0.072139248
0.0024657554 -0.027598714 0.072969705
0.0037397291 -0.027864533 0.072881475
0.0050169625 -0.028083507 0.072791345
0.0062989942 -0.028182106 0.072678566
-0.013297146 -0.026688075 0.072383769
-0.011985692 -0.026778391 0.072290301
-0.010716147 -0.026991792 0.072191261
-0.0094574131 -0.027295448 0.072097659
0.0054845382 -0.028189562 0.072575271
0.0072909538 -0.028259881 0.072315276
-0.016250819 -0.026848309 0.072629958
-0.014744025 -0.026894106 0.072505832
0.0064420803 -0.028163122 0.0732712
-0.0034726562 -0.027555251 0.072076522
-0.00075100607 -0.027237667 0.072811134
0.00043635649 -0.027318757 0.072722986
-0.0018919052 -0.02734899 0.072915748
-0.030769503 0.016348585 0.072657645
-0.029499765 0.016206749 0.072675966
0.0068990164 0.023385739 0.07289397
0.0043012048 0.023875371 0.072703637
0.005599244 0.023634031 0.07279592
0.0082075205 0.023283426 0.072013222
0.0043763379 -0.027911158 0.072622724
0.0043777479 -0.027758474 0.073053084
0.0043795789 -0.027757406 0.073182844
0.006058739 -0.028057959 0.073005766
-0.016885722 -0.026301453 0.073612854
-0.0044082254 -0.027522542 0.073969692
-0.0017743508 -0.027204691 0.073392339
-0.0005655461 -0.027160794 0.073620729
0.0035600066 -0.027679238 0.073505796
0.0047627231 -0.027894542 0.073393293
0.0060988292 -0.028037183 0.073200688
0.0072600786 -0.028006835 0.073095694
-0.0055411272 -0.027719293 0.073389724
-0.0042579263 -0.027524116 0.073274933
-0.002983006 -0.027336987 0.073165424
-0.0014977267 -0.027213659 0.07395754
-0.00022592995 -0.027212532 0.073847219
0.001041548 -0.027285114 0.073732518
0.0023024438 -0.027446743 0.073616326
-0.012012579 -0.027102992 0.073916256
-0.002596016 -0.02736924 0.073379099
-0.0013483253 -0.027251443 0.073272333
-7.9028934e-05 -0.027281884 0.073166728
0.0011944079 -0.027377125 0.073062569
0.0027040802 -0.027516801 0.073910601
0.0044976454 -0.027899347 0.07345774
0.0062891082 -0.028122788 0.07321357
-0.015028065 -0.027276276 0.073550738
-0.013440381 -0.027140953 0.073321179
0.0014240049 -0.027312996 0.073997401
-0.01662845 -0.026912689 0.073743165
-0.00044139317 -0.027171912 0.073762998
0.00074153283 -0.027234918 0.073692605
-0.031026891 0.016341763 0.073654421
-0.02932735 0.016978228 0.073888168
0.0055403244 0.023559671 0.073389858
0.0068266974 0.023312651 0.073497213
0.0042486498 0.02382873 0.073285781
-0.0023636585 -0.027127558 0.074238002
-0.017640384 -0.026409652 0.074572347
-0.016335202 -0.02590562 0.074567355
-0.0036701597 -0.02729319 0.074379794
-0.017621376 -0.027128706 0.073846072
-0.017540505 -0.026514821 0.074522078
-0.016183211 -0.026380744 0.074493065
-0.0056733643 -0.027687948 0.074076526
-0.00037974678 -0.027150381 0.074531958
0.00087446324 -0.027194805 0.074406862
0.0021340942 -0.027304955 0.074274495
0.0060777366 -0.027616369 0.074820504
0.0072820503 -0.027644273 0.074663952
-0.01658543 -0.02672098 0.074659683
-0.010736137 -0.02707947 0.074502215
-0.009467802 -0.027247114 0.074396417
-0.0082039926 -0.027409496 0.074288815
-0.0069407462 -0.02761106 0.074181937
-0.0054883701 -0.027665693 0.074984223
-0.0041999393 -0.027529804 0.074869864
-0.0029258477 -0.027339527 0.074756861
-0.0016499137 -0.027202128 0.074645884
0.0038007936 -0.027569415 0.074460149
0.0050715595 -0.027746152 0.074358113
0.0063390508 -0.027809218 0.074242748
0.0075757201 -0.027769506 0.074097238
-0.014700428 -0.026991606 0.074873194
-0.013334372 -0.026985811 0.074740604
-0.012029968 -0.027051592 0.074619077
-0.0027673012 -0.027342465 0.074067347
-0.0012838595 -0.027210556 0.074861184
-1.1368595e-05 -0.027192341 0.07476335
0.0012590348 -0.02723589 0.074662849
0.0025295957 -0.027369769 0.074559614
-0.016341085 -0.026906602 0.074395299
-0.014836585 -0.027116537 0.074217528
-0.013395207 -0.02719282 0.074070647
-0.013543155 -0.027296964 0.075058438
0.00039604973 -0.027161982 0.075023755
-0.01700321 -0.026692182 0.074840643
0.0055222255 0.023567686 0.074412644
0.006814756 0.023272898 0.074507028
0.0042246324 0.023794048 0.074316807
-0.0072351536 0.025462404 0.0742357
-0.016050912 -0.026058674 0.075488649
-0.017415084 -0.02682049 0.074662328
-0.017301833 -0.026335349 0.075427316
-0.015412847 -0.026192918 0.075251371
-0.0021666964 -0.027121736 0.075134061
-0.00090247631 -0.027040321 0.075010076
-0.007200215 -0.027259002 0.075594552
-0.0059194798 -0.027510835 0.075474881
-0.0046916683 -0.027471712 0.075374857
-0.0034377605 -0.027277296 0.075265519
-0.00069126103 -0.027035592 0.07593298
-0.017743083 -0.026325684 0.074857414
-0.017193798 -0.026521986 0.075464197
-0.010891334 -0.026727328 0.075771622
-0.0096626803 -0.026861107 0.075717673
-0.008428555 -0.027064338 0.075649254
0.0048519461 -0.027503707 0.074961849
-0.015670294 -0.026720962 0.075617552
-0.00017195946 -0.027135881 0.075441077
0.0010919441 -0.027151842 0.075329371
0.002350159 -0.027248681 0.07521347
0.0036025448 -0.027371302 0.075090647
0.0051209647 -0.027340833 0.07592725
0.007602491 -0.027446324 0.075668342
-0.0080517484 -0.027441844 0.07521373
-0.0067829839 -0.027590875 0.07510519
-0.0039907722 -0.027556548 0.075768538
-0.0027115508 -0.027342783 0.07565479
-0.0014423892 -0.027194533 0.075548559
0.0027800784 -0.027296841 0.075491779
-0.016308807 -0.026735693 0.076069906
-0.014805208 -0.026979482 0.075904734
-0.013389811 -0.027134608 0.07573121
-0.012025641 -0.027200419 0.07558687
-0.0010550244 -0.027193995 0.07577005
0.00021896334 -0.027151268 0.075674109
0.0014904655 -0.027184343 0.075582877
-0.01663392 -0.02671208 0.075465478
-0.015087556 -0.027178541 0.075269602
-0.00087010628 -0.02717803 0.075115405
0.0019016272 -0.027134227 0.075862341
0.0032428105 -0.02730188 0.075806171
-0.01526319 -0.026871875 0.076169834
-0.00060884689 -0.027158685 0.076036483
0.0006424624 -0.027085856 0.075942561
-0.030973321 0.016256893 0.075730853
0.0041270833 0.023655975 0.075467244
0.0054200813 0.023378417 0.075568445
-0.0076741977 0.025588816 0.075547591
-0.0063382592 0.025447259 0.075676396
-0.017080165 -0.026722657 0.075694643
-0.016664524 -0.026221378 0.076193616
-0.0046028304 -0.027543595 0.077003792
-0.0033630813 -0.027357308 0.07690493
-0.0019526453 -0.027123662 0.076061063
0.0071757026 -0.027355665 0.075838685
-0.017345969 -0.026435502 0.07582064
-0.016488636 -0.026411666 0.076417685
-0.0082316883 -0.027121954 0.076562122
-0.0069950353 -0.027329689 0.07647267
-0.0057346881 -0.027545039 0.07636869
-0.0044840886 -0.027513161 0.076261692
-0.0032261894 -0.027300676 0.076164268
-0.0017462905 -0.027174141 0.076959498
-0.00050485868 -0.02706548 0.076851085
-0.017576719 -0.026264289 0.075723842
-0.01196635 -0.026645113 0.076835513
-0.010711213 -0.026806626 0.076741338
-0.009468467 -0.026933448 0.076649897
0.0073990976 -0.027422633 0.075962447
0.0013239434 -0.027121764 0.076235518
0.0025935967 -0.027153742 0.076136351
0.0038584729 -0.027228797 0.076035045
0.0041572144 -0.02715525 0.076969713
